ply
format ascii 1.0
element vertex 639
property float x
property float y
property float z
property float nx
property float ny
property float nz
property uchar red
property uchar green
property uchar blue
property float opacity
end_header
0.027214 -0.614046 -0.204561 0.000000 -1.000000 -0.000000 29 29 29 1.000000
0.142715 0.538392 -0.118768 0.000000 0.199368 0.979925 29 29 29 1.000000
0.141620 -0.125130 -0.074005 0.000000 -0.199368 -0.979925 29 29 29 1.000000
-0.759298 -0.189701 0.015380 -0.574216 -0.187008 -0.797060 29 29 29 1.000000
-0.801153 0.552488 -0.031404 0.000000 0.199368 0.979925 29 29 29 1.000000
-0.154779 -0.612526 0.210978 -0.571802 -0.000000 0.820391 29 29 29 1.000000
-0.375662 -0.000313 -0.009167 0.000000 -0.199368 -0.979925 29 29 29 1.000000
-0.342050 0.104048 0.059832 0.000000 -0.199368 -0.979925 29 29 29 1.000000
-0.472462 0.205132 -0.141197 0.000000 -0.199368 -0.979925 29 29 29 1.000000
-0.451248 -0.373373 0.156965 0.000000 -0.199368 -0.979925 29 29 29 1.000000
-0.088657 -0.461780 0.084719 0.000000 -0.199368 -0.979925 29 29 29 1.000000
-0.775984 0.326900 -0.093334 0.257663 0.192636 0.946837 29 29 29 1.000000
0.716222 -0.345138 0.060988 0.000000 0.199368 0.979925 29 29 29 1.000000
-0.741623 -0.092314 0.099783 0.000000 -0.199368 -0.979925 29 29 29 1.000000
-0.632831 0.362570 -0.134366 -0.294086 -0.190552 -0.936591 29 29 29 1.000000
0.808279 0.068381 0.067089 0.000000 -0.199368 -0.979925 29 29 29 1.000000
-0.679813 -0.404964 0.073160 0.000000 0.199368 0.979925 29 29 29 1.000000
0.630119 -0.476762 0.119400 0.000000 0.979925 -0.199368 29 29 29 1.000000
-0.498361 -0.086787 0.098658 0.000000 0.199368 0.979925 29 29 29 1.000000
0.584296 0.592511 -0.057878 0.000000 0.979925 -0.199368 29 29 29 1.000000
-0.573892 0.033042 0.074279 0.000000 0.199368 0.979925 29 29 29 1.000000
0.340213 -0.406567 0.131790 0.000000 0.979925 -0.199368 29 29 29 1.000000
0.191836 -0.569836 0.063318 0.000000 1.000000 0.000000 29 29 29 1.000000
-0.154751 0.164497 -0.142934 0.000000 0.199364 0.979926 29 29 29 1.000000
-0.493370 -0.403641 0.072891 0.000000 -0.199368 -0.979925 29 29 29 1.000000
-0.150850 -0.176521 0.026683 0.000000 0.199368 0.979925 29 29 29 1.000000
0.590596 0.031293 -0.077275 0.257663 -0.192636 -0.946837 29 29 29 1.000000
0.034392 -0.569836 0.153258 0.000000 -1.000000 -0.000000 29 29 29 1.000000
0.523362 0.455623 -0.101928 0.000000 -0.199368 -0.979925 29 29 29 1.000000
0.770004 -0.291833 0.050143 0.000000 0.199368 0.979925 29 29 29 1.000000
-0.183796 -0.017034 -0.095997 0.000000 0.199368 0.979925 29 29 29 1.000000
-0.087224 -0.569836 0.227464 0.000000 -1.000000 -0.000000 29 29 29 1.000000
-0.480254 0.058231 -0.111310 0.000000 0.199368 0.979925 29 29 29 1.000000
-0.089237 -0.293586 -0.134940 0.000000 0.147809 -0.989016 29 29 29 1.000000
0.009311 -0.182410 -0.118325 0.000000 -0.147809 0.989016 29 29 29 1.000000
0.040349 -0.614046 0.092321 0.000000 -1.000000 -0.000000 29 29 29 1.000000
-0.821200 0.527566 -0.116609 0.758307 -0.134373 -0.637898 29 29 29 1.000000
-0.110430 -0.132959 -0.089922 0.000000 0.988953 0.148231 29 29 29 1.000000
0.095808 -0.120024 -0.075044 0.000000 0.199368 0.979925 29 29 29 1.000000
-0.196839 -0.350601 0.152332 0.000000 -0.199368 -0.979925 29 29 29 1.000000
0.644608 0.114611 -0.076901 -0.262716 0.200333 0.943847 29 29 29 1.000000
0.540538 0.203757 -0.050686 0.000000 0.199368 0.979925 29 29 29 1.000000
-0.126537 -0.382698 -0.148258 0.000000 0.147809 -0.989016 29 29 29 1.000000
-0.031722 -0.132695 -0.093337 0.000000 -0.999643 -0.026703 29 29 29 1.000000
-0.603665 0.451542 -0.010866 0.000000 0.199368 0.979925 29 29 29 1.000000
-0.125818 -0.447633 -0.157962 0.000000 0.147809 -0.989016 29 29 29 1.000000
-0.558288 -0.217989 0.035120 0.000000 -0.199368 -0.979925 29 29 29 1.000000
0.152098 -0.270680 -0.024719 0.000000 -0.979925 0.199368 29 29 29 1.000000
0.269683 -0.412921 0.100563 0.000000 0.979925 -0.199368 29 29 29 1.000000
0.664703 0.233921 -0.090961 0.285819 -0.187939 -0.939674 29 29 29 1.000000
-0.566542 0.442885 -0.099337 0.000000 -0.199368 -0.979925 29 29 29 1.000000
-0.246251 -0.158824 -0.067150 0.000000 0.199368 0.979925 29 29 29 1.000000
-0.355018 -0.349986 0.152207 0.000000 -0.199368 -0.979925 29 29 29 1.000000
-0.464974 -0.341570 0.060262 0.000000 -0.199368 -0.979925 29 29 29 1.000000
0.469045 -0.269635 -0.019587 0.000000 -0.979925 0.199368 29 29 29 1.000000
0.011140 -0.150303 0.111580 0.000000 0.199368 0.979925 29 29 29 1.000000
0.716110 0.160066 -0.066646 -0.262716 0.200333 0.943847 29 29 29 1.000000
-0.214084 -0.271622 -0.029352 0.000000 0.979925 -0.199368 29 29 29 1.000000
0.221732 0.475028 -0.105876 0.000000 0.199368 0.979925 29 29 29 1.000000
-0.636606 -0.107430 -0.037558 0.294086 0.190552 0.936591 29 29 29 1.000000
-0.114371 -0.614046 -0.219467 0.000000 1.000000 0.000000 29 29 29 1.000000
0.566476 -0.102222 0.101798 0.000000 0.199368 0.979925 29 29 29 1.000000
-0.588444 0.018367 -0.081597 0.257663 0.192636 0.946837 29 29 29 1.000000
0.490491 -0.395105 0.038445 0.000000 0.499016 0.866593 29 29 29 1.000000
-0.600371 0.273044 -0.064782 0.000000 0.199368 0.979925 29 29 29 1.000000
-0.742742 0.018342 -0.012963 0.000000 -0.199368 -0.979925 29 29 29 1.000000
0.305311 -0.198301 0.121346 0.000000 -0.199368 -0.979925 29 29 29 1.000000
-0.272277 0.434809 -0.007462 0.000000 0.199368 0.979925 29 29 29 1.000000
0.093872 -0.309446 -0.129413 1.000000 0.000000 0.000000 29 29 29 1.000000
-0.001244 -0.143778 -0.095158 0.000000 -0.979925 0.199368 29 29 29 1.000000
-0.371205 -0.267073 -0.006991 0.000000 -0.979925 0.199368 29 29 29 1.000000
-0.800380 -0.125569 0.005361 -0.257663 -0.192636 -0.946837 29 29 29 1.000000
0.373509 0.446929 -0.142920 0.000000 0.120742 -0.992684 29 29 29 1.000000
0.500158 -0.171976 0.025758 0.000000 0.199368 0.979925 29 29 29 1.000000
0.451094 0.193764 -0.138884 0.000000 -0.199368 -0.979925 29 29 29 1.000000
-0.724797 0.519583 -0.024709 0.000000 -0.199368 -0.979925 29 29 29 1.000000
-0.119899 0.257466 0.028619 0.000000 0.199368 0.979925 29 29 29 1.000000
-0.520706 0.211141 -0.052188 0.000000 0.199368 0.979925 29 29 29 1.000000
0.565773 -0.383795 0.031932 0.000000 0.499016 0.866593 29 29 29 1.000000
0.554239 0.099403 0.060777 0.000000 -0.199368 -0.979925 29 29 29 1.000000
-0.021290 -0.354649 -0.144066 0.000000 -0.147809 0.989016 29 29 29 1.000000
-0.643642 -0.469537 0.081306 0.000000 0.499016 0.866593 29 29 29 1.000000
0.688518 -0.140534 -0.015669 -0.257663 0.192636 0.946837 29 29 29 1.000000
-0.084925 -0.614046 0.080146 0.000000 -1.000000 -0.000000 29 29 29 1.000000
-0.131477 0.046267 -0.108876 0.000000 -0.199368 -0.979925 29 29 29 1.000000
-0.422473 -0.261479 0.055377 0.000000 0.150211 0.988654 29 29 29 1.000000
0.106908 0.559732 -0.129199 0.000000 -0.120742 0.992684 29 29 29 1.000000
-0.176085 0.189517 -0.047789 0.000000 0.199368 0.979925 29 29 29 1.000000
-0.010396 -0.288735 -0.105568 0.000000 0.147809 -0.989016 29 29 29 1.000000
0.477817 -0.296024 0.050996 0.000000 0.199368 0.979925 29 29 29 1.000000
-0.563644 0.184029 -0.119766 0.294086 0.190552 0.936591 29 29 29 1.000000
-0.551697 -0.191250 0.119911 0.000000 -0.199368 -0.979925 29 29 29 1.000000
-0.064419 -0.391667 -0.149598 0.000000 0.147809 -0.989016 29 29 29 1.000000
0.441527 0.594377 -0.048704 0.000000 -0.979925 0.199368 29 29 29 1.000000
0.585907 0.505948 -0.135741 0.000000 -0.120742 0.992684 29 29 29 1.000000
0.216428 -0.264641 0.134843 0.000000 0.199368 0.979925 29 29 29 1.000000
-0.538798 0.470053 -0.104864 0.000000 -0.199368 -0.979925 29 29 29 1.000000
0.366202 -0.401692 0.162726 0.000000 -0.199368 -0.979925 29 29 29 1.000000
-0.138900 0.273421 -0.064859 0.000000 0.199368 0.979925 29 29 29 1.000000
-0.811237 -0.471447 0.132239 0.335624 0.923085 -0.187804 29 29 29 1.000000
0.817244 -0.088830 0.098242 1.000000 0.000000 0.000000 29 29 29 1.000000
0.206594 -0.115659 0.104532 0.000000 0.199368 0.979925 29 29 29 1.000000
-0.652187 -0.338333 0.149836 0.000000 -0.199368 -0.979925 29 29 29 1.000000
0.744046 0.466818 -0.104206 0.000000 -0.199368 -0.979925 29 29 29 1.000000
0.596422 -0.258419 -0.016747 -0.257663 0.192636 0.946837 29 29 29 1.000000
0.131017 0.350014 0.009790 0.000000 -0.199368 -0.979925 29 29 29 1.000000
0.804794 -0.161178 0.023561 0.000000 -0.199368 -0.979925 29 29 29 1.000000
0.106234 -0.569836 -0.165658 0.000000 -1.000000 -0.000000 29 29 29 1.000000
-0.671578 0.324407 0.015000 0.000000 0.199368 0.979925 29 29 29 1.000000
0.807465 -0.367446 0.065527 0.000000 -0.199368 -0.979925 29 29 29 1.000000
0.565395 -0.276254 -0.019130 0.285819 -0.187939 -0.939674 29 29 29 1.000000
0.229213 -0.592750 0.116641 -0.883655 0.000000 -0.468139 29 29 29 1.000000
-0.199509 -0.357084 0.063419 0.000000 -0.199368 -0.979925 29 29 29 1.000000
-0.322594 -0.396719 0.075925 0.000000 -0.150211 -0.988654 29 29 29 1.000000
0.734113 -0.455207 0.083382 0.000000 0.199368 0.979925 29 29 29 1.000000
0.392687 -0.127561 0.016722 0.000000 -0.199368 -0.979925 29 29 29 1.000000
0.391127 -0.404934 0.139818 0.000000 -0.979925 0.199368 29 29 29 1.000000
-0.302822 0.141298 0.052254 0.000000 0.199368 0.979925 29 29 29 1.000000
0.408302 -0.300982 0.061379 0.000000 0.150211 0.988654 29 29 29 1.000000
0.263316 -0.335592 0.149278 0.000000 -0.199368 -0.979925 29 29 29 1.000000
-0.782949 0.343377 -0.083325 0.294086 0.190552 0.936591 29 29 29 1.000000
-0.729454 0.404178 -0.112492 -0.294086 -0.190552 -0.936591 29 29 29 1.000000
-0.381171 0.252780 -0.150891 0.000000 -0.199368 -0.979925 29 29 29 1.000000
0.038713 -0.334921 -0.112470 0.000000 0.147809 -0.989016 29 29 29 1.000000
0.071618 0.578123 -0.036619 0.000000 -0.199368 -0.979925 29 29 29 1.000000
0.439901 0.193618 -0.048623 0.000000 0.199368 0.979925 29 29 29 1.000000
0.473695 0.383159 0.003047 0.000000 -0.199368 -0.979925 29 29 29 1.000000
0.220795 -0.298042 0.141638 0.000000 -0.199368 -0.979925 29 29 29 1.000000
0.433227 0.058725 -0.111410 0.000000 -0.199368 -0.979925 29 29 29 1.000000
0.043115 0.337024 -0.077799 0.000000 0.199368 0.979925 29 29 29 1.000000
0.552076 -0.330277 0.001115 0.000000 -0.499016 -0.866593 29 29 29 1.000000
0.751993 0.017710 -0.021167 0.285819 -0.187939 -0.939674 29 29 29 1.000000
-0.439855 -0.414622 0.165357 0.000000 0.199368 0.979925 29 29 29 1.000000
0.583733 -0.131525 0.107760 0.000000 -0.199368 -0.979925 29 29 29 1.000000
0.394418 -0.065457 0.094318 0.000000 -0.199368 -0.979925 29 29 29 1.000000
-0.462772 -0.274933 0.057421 0.000000 -0.150211 -0.988654 29 29 29 1.000000
-0.566359 0.216032 -0.126289 0.391968 0.199697 0.898043 29 29 29 1.000000
-0.418771 -0.337746 0.149716 0.000000 -0.199368 -0.979925 29 29 29 1.000000
-0.374168 0.097676 -0.029103 0.000000 0.199368 0.979925 29 29 29 1.000000
-0.740258 -0.130256 -0.000368 0.294086 0.190552 0.936591 29 29 29 1.000000
0.015134 -0.569836 0.088523 0.000000 1.000000 0.000000 29 29 29 1.000000
-0.140745 -0.614046 0.162547 0.000000 -1.000000 -0.000000 29 29 29 1.000000
0.764207 -0.258368 0.028902 -0.257663 0.192636 0.946837 29 29 29 1.000000
0.014302 -0.569836 0.151784 0.000000 -1.000000 -0.000000 29 29 29 1.000000
0.373336 0.085745 0.063556 0.000000 -0.199368 -0.979925 29 29 29 1.000000
0.320173 0.018960 -0.103320 0.000000 0.199368 0.979925 29 29 29 1.000000
-0.575956 0.141825 -0.038085 0.000000 0.199368 0.979925 29 29 29 1.000000
0.163595 0.253520 -0.151042 0.000000 0.199368 0.979925 29 29 29 1.000000
0.413621 0.446250 -0.100021 0.000000 -0.199368 -0.979925 29 29 29 1.000000
0.527101 0.540555 -0.028976 0.000000 -0.199368 -0.979925 29 29 29 1.000000
-0.034302 -0.614046 0.112071 0.000000 1.000000 0.000000 29 29 29 1.000000
0.442560 0.412427 -0.093140 0.000000 -0.199368 -0.979925 29 29 29 1.000000
-0.220338 -0.569836 0.112368 0.000000 1.000000 0.000000 29 29 29 1.000000
0.667041 -0.251965 0.006463 0.283236 -0.191204 -0.939797 29 29 29 1.000000
0.721757 -0.157920 0.004763 0.285819 -0.187939 -0.939674 29 29 29 1.000000
0.501489 -0.342454 0.150674 0.000000 0.199368 0.979925 29 29 29 1.000000
-0.092837 -0.390495 0.074979 0.000000 -0.150211 -0.988654 29 29 29 1.000000
-0.685993 -0.368878 0.156050 0.000000 0.199368 0.979925 29 29 29 1.000000
-0.261059 -0.583893 0.050884 0.976128 0.000000 -0.217194 29 29 29 1.000000
0.103663 0.058211 -0.021074 0.000000 -0.199368 -0.979925 29 29 29 1.000000
0.214211 0.527062 -0.026231 0.000000 0.199368 0.979925 29 29 29 1.000000
-0.643518 -0.298894 0.051580 0.000000 -0.199368 -0.979925 29 29 29 1.000000
0.607327 -0.165144 0.114600 0.000000 0.199368 0.979925 29 29 29 1.000000
0.817244 0.345989 -0.048689 -1.000000 0.000000 0.000000 29 29 29 1.000000
-0.741473 0.128390 0.054880 0.000000 -0.199368 -0.979925 29 29 29 1.000000
0.170744 0.264773 0.027132 0.000000 0.199368 0.979925 29 29 29 1.000000
0.482212 0.201506 0.040004 0.000000 0.199368 0.979925 29 29 29 1.000000
-0.119960 -0.614046 0.228353 0.000000 -1.000000 -0.000000 29 29 29 1.000000
-0.097088 -0.297124 0.051220 0.000000 -0.199368 -0.979925 29 29 29 1.000000
0.233800 0.054646 -0.110581 0.000000 0.199368 0.979925 29 29 29 1.000000
0.320298 -0.043959 0.089945 0.000000 -0.199368 -0.979925 29 29 29 1.000000
0.325581 -0.115833 0.014336 0.000000 0.199368 0.979925 29 29 29 1.000000
0.031854 0.119024 -0.123678 0.000000 -0.199368 -0.979925 29 29 29 1.000000
0.296940 0.151569 0.050164 0.000000 -0.199368 -0.979925 29 29 29 1.000000
0.066085 0.487931 -0.018270 0.000000 -0.199368 -0.979925 29 29 29 1.000000
-0.327301 -0.482716 0.088990 0.000000 0.150211 0.988654 29 29 29 1.000000
0.749932 0.509763 -0.129805 0.176991 -0.078911 -0.981044 29 29 29 1.000000
0.519573 0.525215 -0.116087 0.000000 0.199368 0.979925 29 29 29 1.000000
0.062469 -0.614046 -0.253118 0.000000 1.000000 0.000000 29 29 29 1.000000
-0.103392 0.078433 -0.115420 0.000000 0.199368 0.979925 29 29 29 1.000000
-0.405053 -0.028321 -0.093701 0.000000 0.199368 0.979925 29 29 29 1.000000
0.174999 0.361345 -0.082747 0.000000 -0.199368 -0.979925 29 29 29 1.000000
0.611192 0.220151 0.036211 0.000000 -0.199368 -0.979925 29 29 29 1.000000
0.654066 0.319977 -0.074331 0.000000 0.199368 0.979925 29 29 29 1.000000
0.409293 -0.428490 0.168178 0.000000 0.199368 0.979925 29 29 29 1.000000
-0.793226 -0.065772 -0.008752 0.257663 0.192636 0.946837 29 29 29 1.000000
0.512315 0.583771 -0.100837 0.000000 -0.979925 0.199368 29 29 29 1.000000
-0.220434 0.520119 -0.134017 0.000000 0.120742 -0.992684 29 29 29 1.000000
0.062433 -0.614046 -0.004105 0.000000 -1.000000 -0.000000 29 29 29 1.000000
0.522279 -0.457134 0.174006 0.000000 -0.199368 -0.979925 29 29 29 1.000000
-0.122110 -0.552078 -0.144925 0.000000 0.147809 -0.989016 29 29 29 1.000000
-0.498284 -0.227809 -0.053114 0.000000 -0.199368 -0.979925 29 29 29 1.000000
0.465603 -0.133339 0.108129 0.000000 0.199368 0.979925 29 29 29 1.000000
-0.527525 0.528711 -0.132972 0.000000 -0.120742 0.992684 29 29 29 1.000000
-0.381407 -0.262117 0.134329 0.000000 -0.199368 -0.979925 29 29 29 1.000000
0.487149 0.591275 -0.063951 0.000000 0.979925 -0.199368 29 29 29 1.000000
0.540152 -0.138724 0.109225 0.000000 0.199368 0.979925 29 29 29 1.000000
-0.681854 0.349854 -0.080409 0.000000 0.199368 0.979925 29 29 29 1.000000
0.510393 0.143821 -0.120960 -0.294086 0.190552 0.936591 29 29 29 1.000000
-0.505004 0.227016 0.034814 0.000000 0.199368 0.979925 29 29 29 1.000000
0.218087 -0.139967 -0.070986 0.000000 0.199368 0.979925 29 29 29 1.000000
-0.493507 0.291457 0.021703 0.000000 -0.199368 -0.979925 29 29 29 1.000000
0.757280 -0.393548 0.070837 0.000000 -0.199368 -0.979925 29 29 29 1.000000
0.272875 0.470314 -0.104917 0.000000 0.199368 0.979925 29 29 29 1.000000
0.381001 0.064106 -0.022273 0.000000 0.199368 0.979925 29 29 29 1.000000
-0.806549 0.459462 -0.102719 -0.401490 0.173801 0.899221 29 29 29 1.000000
-0.725806 -0.429081 0.078067 0.000000 0.199368 0.979925 29 29 29 1.000000
-0.036387 -0.614046 0.203676 0.000000 -1.000000 -0.000000 29 29 29 1.000000
-0.758324 -0.038270 -0.023845 -0.257663 -0.192636 -0.946837 29 29 29 1.000000
-0.562137 -0.263332 0.044345 0.000000 -0.199368 -0.979925 29 29 29 1.000000
0.146016 -0.199629 0.121616 0.000000 0.199368 0.979925 29 29 29 1.000000
-0.288306 -0.026555 -0.003828 0.000000 -0.199368 -0.979925 29 29 29 1.000000
-0.703142 -0.194479 -0.007081 -0.257663 -0.192636 -0.946837 29 29 29 1.000000
0.417770 -0.121731 -0.074696 0.000000 0.199368 0.979925 29 29 29 1.000000
-0.121257 -0.569836 -0.007331 0.000000 -1.000000 -0.000000 29 29 29 1.000000
0.629809 0.508439 -0.022442 0.000000 0.199368 0.979925 29 29 29 1.000000
-0.151800 -0.215857 0.124918 0.000000 -0.199368 -0.979925 29 29 29 1.000000
0.142284 -0.184658 0.028338 0.000000 0.199368 0.979925 29 29 29 1.000000
-0.237062 -0.614046 0.041137 0.000000 -1.000000 -0.000000 29 29 29 1.000000
0.093620 -0.201974 0.122093 0.000000 -0.199368 -0.979925 29 29 29 1.000000
0.535051 0.349758 -0.080390 0.000000 0.199368 0.979925 29 29 29 1.000000
0.271289 0.096513 -0.119098 0.000000 0.199368 0.979925 29 29 29 1.000000
0.362081 0.545643 -0.120243 0.000000 0.199368 0.979925 29 29 29 1.000000
0.120393 0.162438 -0.142324 -0.019116 -0.979746 0.199327 29 29 29 1.000000
0.624040 0.172509 -0.044328 0.000000 0.199368 0.979925 29 29 29 1.000000
-0.231410 -0.043262 0.089803 0.000000 -0.199368 -0.979925 29 29 29 1.000000
-0.186195 0.532687 -0.117607 0.000000 -0.199368 -0.979925 29 29 29 1.000000
-0.397347 -0.403556 0.163105 0.000000 0.199368 0.979925 29 29 29 1.000000
-0.745685 0.026359 0.075638 0.000000 0.199368 0.979925 29 29 29 1.000000
-0.694353 -0.464174 0.175438 0.000000 0.199368 0.979925 29 29 29 1.000000
-0.286003 -0.073783 -0.084451 0.000000 -0.199368 -0.979925 29 29 29 1.000000
-0.102372 -0.407651 0.126464 0.000000 -0.979925 0.199368 29 29 29 1.000000
-0.840639 -0.173567 0.102149 1.000000 0.000000 0.000000 29 29 29 1.000000
-0.680970 0.139062 -0.077497 0.858211 0.137732 0.494474 29 29 29 1.000000
0.572838 0.132289 -0.036145 0.000000 0.199368 0.979925 29 29 29 1.000000
-0.611408 0.501120 -0.136328 0.000000 -0.120742 0.992684 29 29 29 1.000000
-0.350541 0.070322 -0.113770 0.000000 -0.199368 -0.979925 29 29 29 1.000000
-0.177997 -0.185368 0.118715 0.000000 0.199368 0.979925 29 29 29 1.000000
-0.041000 -0.550661 -0.173360 0.000000 -0.147809 0.989016 29 29 29 1.000000
-0.231625 0.241967 -0.058460 0.000000 -0.199368 -0.979925 29 29 29 1.000000
0.222878 0.184449 -0.136989 0.000000 0.199368 0.979925 29 29 29 1.000000
0.024852 -0.258421 0.035531 0.000000 -0.979925 0.199368 29 29 29 1.000000
-0.157421 -0.614046 -0.117438 0.000000 -1.000000 -0.000000 29 29 29 1.000000
0.617661 0.413234 -0.142091 -0.294086 0.190552 0.936591 29 29 29 1.000000
-0.676346 -0.463996 0.085170 0.000000 -0.199368 -0.979925 29 29 29 1.000000
0.799621 0.333943 -0.080307 -0.262716 0.200333 0.943847 29 29 29 1.000000
0.657340 0.221046 0.036029 0.000000 -0.199368 -0.979925 29 29 29 1.000000
0.608012 -0.036696 -0.001765 0.000000 -0.199368 -0.979925 29 29 29 1.000000
-0.486404 0.281796 -0.156795 0.000000 0.199368 0.979925 29 29 29 1.000000
-0.493016 0.575541 -0.036094 0.000000 0.199368 0.979925 29 29 29 1.000000
0.189988 0.385546 -0.150386 0.000000 -0.120742 0.992684 29 29 29 1.000000
0.347444 0.087130 -0.026958 0.000000 -0.199368 -0.979925 29 29 29 1.000000
-0.414166 0.086075 0.063489 0.000000 -0.199368 -0.979925 29 29 29 1.000000
0.144122 0.385789 -0.150356 0.000000 -0.120742 0.992684 29 29 29 1.000000
-0.083406 -0.405234 0.138345 0.000000 0.979925 -0.199368 29 29 29 1.000000
-0.157580 -0.032141 0.087540 0.000000 0.199368 0.979925 29 29 29 1.000000
-0.755625 0.346937 0.010416 0.000000 0.199368 0.979925 29 29 29 1.000000
-0.217080 0.489637 -0.137725 0.000000 -0.120742 0.992684 29 29 29 1.000000
-0.382618 -0.442000 0.170927 0.000000 -0.199368 -0.979925 29 29 29 1.000000
-0.016396 -0.204698 0.032416 0.000000 -0.199368 -0.979925 29 29 29 1.000000
0.636807 0.252044 -0.103284 0.294086 -0.190552 -0.936591 29 29 29 1.000000
0.479175 0.433281 -0.097383 0.000000 -0.199368 -0.979925 29 29 29 1.000000
0.494644 -0.479946 0.103751 0.000000 -0.979925 0.199368 29 29 29 1.000000
-0.429582 -0.341315 0.060211 0.000000 0.199368 0.979925 29 29 29 1.000000
0.074368 -0.032461 -0.002626 0.000000 0.199368 0.979925 29 29 29 1.000000
0.728565 0.258608 -0.061845 0.000000 -0.199368 -0.979925 29 29 29 1.000000
-0.771893 -0.048307 0.090829 0.000000 -0.199368 -0.979925 29 29 29 1.000000
0.402637 -0.392542 0.160865 0.000000 -0.199368 -0.979925 29 29 29 1.000000
0.470220 -0.165309 0.114634 0.000000 -0.199368 -0.979925 29 29 29 1.000000
0.156821 0.515143 -0.023806 0.000000 -0.199368 -0.979925 29 29 29 1.000000
-0.550409 -0.259902 0.133879 0.000000 0.199368 0.979925 29 29 29 1.000000
-0.825632 0.061133 -0.021669 0.861932 -0.065048 -0.502834 29 29 29 1.000000
0.231850 -0.614046 -0.009892 0.000000 1.000000 0.000000 29 29 29 1.000000
0.504800 0.542296 -0.029330 0.000000 -0.199368 -0.979925 29 29 29 1.000000
0.394135 -0.008933 0.082818 0.000000 -0.199368 -0.979925 29 29 29 1.000000
-0.518306 -0.013083 -0.006569 0.000000 -0.199368 -0.979925 29 29 29 1.000000
-0.002599 0.414355 -0.146882 0.000000 -0.120742 0.992684 29 29 29 1.000000
-0.221201 -0.569836 -0.146326 0.000000 1.000000 0.000000 29 29 29 1.000000
-0.579303 0.561173 -0.129024 0.000000 0.120742 -0.992684 29 29 29 1.000000
-0.328967 0.281623 -0.156760 0.000000 -0.199368 -0.979925 29 29 29 1.000000
0.817244 -0.174710 0.085606 -1.000000 0.000000 0.000000 29 29 29 1.000000
0.002024 -0.192220 -0.060355 0.000000 -0.199368 -0.979925 29 29 29 1.000000
-0.052856 -0.231763 -0.125700 0.000000 0.147809 -0.989016 29 29 29 1.000000
-0.110229 -0.187862 0.119222 0.000000 -0.199368 -0.979925 29 29 29 1.000000
-0.438267 0.588639 -0.076907 0.000000 -0.979925 0.199368 29 29 29 1.000000
0.779866 -0.328114 0.047353 0.257663 -0.192636 -0.946837 29 29 29 1.000000
0.425157 -0.048416 0.000620 0.000000 -0.199368 -0.979925 29 29 29 1.000000
0.572520 -0.178171 -0.037038 0.283236 -0.191204 -0.939797 29 29 29 1.000000
-0.057334 0.337688 -0.156207 0.000000 0.120742 -0.992684 29 29 29 1.000000
-0.155707 -0.614046 -0.198713 0.000000 -1.000000 -0.000000 29 29 29 1.000000
0.454851 -0.219318 0.035390 0.000000 -0.199368 -0.979925 29 29 29 1.000000
0.157817 -0.614046 -0.093984 0.000000 1.000000 0.000000 29 29 29 1.000000
-0.078481 -0.104407 -0.078221 0.000000 -0.199368 -0.979925 29 29 29 1.000000
-0.602462 -0.266793 -0.015856 0.294086 0.190552 0.936591 29 29 29 1.000000
0.797392 0.384121 0.002851 0.000000 -0.199368 -0.979925 29 29 29 1.000000
0.212168 0.284150 -0.157274 0.000000 0.199368 0.979925 29 29 29 1.000000
0.507545 0.509865 -0.112964 0.000000 -0.199368 -0.979925 29 29 29 1.000000
-0.205954 0.130964 0.054356 0.000000 0.199368 0.979925 29 29 29 1.000000
0.447847 -0.325686 0.147263 0.000000 0.199368 0.979925 29 29 29 1.000000
-0.734355 -0.183463 0.028095 0.000000 -0.199368 -0.979925 29 29 29 1.000000
0.015697 -0.135609 0.018359 0.000000 -0.199368 -0.979925 29 29 29 1.000000
0.048475 -0.190868 0.119834 0.000000 0.199368 0.979925 29 29 29 1.000000
0.121344 -0.614046 0.045826 0.000000 -1.000000 -0.000000 29 29 29 1.000000
-0.273278 -0.448551 0.172260 0.000000 0.199368 0.979925 29 29 29 1.000000
-0.206111 0.026108 0.075689 0.000000 -0.199368 -0.979925 29 29 29 1.000000
-0.400446 0.172382 -0.134534 0.000000 0.199368 0.979925 29 29 29 1.000000
0.817244 -0.358314 0.116892 1.000000 0.000000 0.000000 29 29 29 1.000000
0.778015 -0.388470 0.069804 0.000000 -0.199368 -0.979925 29 29 29 1.000000
0.251882 -0.242232 0.130284 0.000000 -0.199368 -0.979925 29 29 29 1.000000
-0.560009 -0.020366 -0.005087 0.000000 -0.199368 -0.979925 29 29 29 1.000000
-0.195994 -0.569836 0.039090 0.000000 1.000000 0.000000 29 29 29 1.000000
0.677756 0.491496 -0.137499 0.000000 0.120742 -0.992684 29 29 29 1.000000
0.613814 0.078231 -0.025147 0.000000 -0.199368 -0.979925 29 29 29 1.000000
0.108033 0.571588 -0.035290 0.000000 0.199368 0.979925 29 29 29 1.000000
0.221815 -0.598476 -0.142844 0.855235 0.000000 -0.518240 29 29 29 1.000000
0.253269 0.596086 -0.040307 0.000000 0.979925 -0.199368 29 29 29 1.000000
-0.068935 -0.066526 -0.085928 0.000000 -0.199368 -0.979925 29 29 29 1.000000
0.112250 -0.569836 -0.220283 0.000000 1.000000 0.000000 29 29 29 1.000000
-0.505571 -0.258645 0.054946 0.000000 -0.150211 -0.988654 29 29 29 1.000000
0.696666 0.398652 -0.123151 -0.257663 0.192636 0.946837 29 29 29 1.000000
-0.385650 -0.323239 0.064760 0.000000 0.150211 0.988654 29 29 29 1.000000
-0.141677 -0.059237 0.093053 0.000000 -0.199368 -0.979925 29 29 29 1.000000
0.114338 -0.175051 0.116616 0.000000 -0.199368 -0.979925 29 29 29 1.000000
-0.004720 0.460748 -0.141239 0.000000 -0.120742 0.992684 29 29 29 1.000000
-0.164375 -0.301777 0.052166 0.000000 -0.199368 -0.979925 29 29 29 1.000000
-0.115780 0.581021 -0.114351 0.000000 -0.979925 0.199368 29 29 29 1.000000
-0.324326 0.444537 -0.143210 0.000000 -0.120742 0.992684 29 29 29 1.000000
0.817244 0.388174 -0.071401 -1.000000 0.000000 0.000000 29 29 29 1.000000
-0.786485 0.468158 -0.119216 -0.257663 -0.192636 -0.946837 29 29 29 1.000000
-0.840639 0.237819 -0.035679 1.000000 0.000000 0.000000 29 29 29 1.000000
0.000833 -0.614046 0.081494 0.000000 -1.000000 -0.000000 29 29 29 1.000000
0.028353 0.297984 -0.069856 0.000000 0.199368 0.979925 29 29 29 1.000000
0.077085 -0.569836 -0.157490 0.000000 -1.000000 -0.000000 29 29 29 1.000000
-0.120584 -0.569836 -0.237055 0.000000 1.000000 0.000000 29 29 29 1.000000
-0.411259 0.017595 -0.103042 0.000000 0.199368 0.979925 29 29 29 1.000000
0.639786 0.073832 -0.072544 -0.257663 0.192636 0.946837 29 29 29 1.000000
0.077520 -0.164836 -0.106109 0.000000 0.833886 0.551937 29 29 29 1.000000
0.575960 -0.045221 -0.065691 -0.257663 0.192636 0.946837 29 29 29 1.000000
-0.116843 0.177100 -0.135494 0.000000 0.199368 0.979925 29 29 29 1.000000
-0.702424 0.000342 -0.046913 -0.257663 -0.192636 -0.946837 29 29 29 1.000000
-0.741389 0.322322 -0.101817 -0.257663 -0.192636 -0.946837 29 29 29 1.000000
0.741899 -0.110500 0.103483 0.000000 -0.199368 -0.979925 29 29 29 1.000000
-0.825655 0.451183 -0.010793 0.000000 0.199368 0.979925 29 29 29 1.000000
-0.589273 -0.128487 0.016910 0.000000 -0.199368 -0.979925 29 29 29 1.000000
0.235177 -0.614046 -0.084098 0.000000 1.000000 0.000000 29 29 29 1.000000
-0.467874 -0.033713 -0.092604 0.000000 -0.199368 -0.979925 29 29 29 1.000000
-0.409578 -0.210321 -0.056672 0.000000 -0.199368 -0.979925 29 29 29 1.000000
-0.013171 -0.330473 0.148236 0.000000 0.199368 0.979925 29 29 29 1.000000
0.374096 0.002763 -0.100025 0.000000 0.199368 0.979925 29 29 29 1.000000
0.817244 -0.189981 0.065735 1.000000 0.000000 0.000000 29 29 29 1.000000
-0.794516 0.313881 -0.073091 0.000000 -0.199368 -0.979925 29 29 29 1.000000
0.093872 -0.554093 -0.155357 1.000000 0.000000 0.000000 29 29 29 1.000000
-0.289846 -0.360666 0.064148 0.000000 -0.199368 -0.979925 29 29 29 1.000000
-0.001265 -0.303254 -0.136385 0.000000 -0.147809 0.989016 29 29 29 1.000000
-0.642503 0.264054 -0.111285 0.294086 0.190552 0.936591 29 29 29 1.000000
-0.816958 0.580771 -0.089769 -0.452600 0.873812 -0.177779 29 29 29 1.000000
-0.753967 -0.245579 0.017147 -0.257663 -0.192636 -0.946837 29 29 29 1.000000
0.387203 -0.178232 -0.063201 0.000000 0.199368 0.979925 29 29 29 1.000000
0.667047 0.480010 -0.016658 0.000000 -0.199368 -0.979925 29 29 29 1.000000
0.527280 0.147113 0.051071 0.000000 0.199368 0.979925 29 29 29 1.000000
-0.571999 0.348608 -0.150626 -0.294086 -0.190552 -0.936591 29 29 29 1.000000
0.667306 0.592868 -0.056123 0.000000 -0.979925 0.199368 29 29 29 1.000000
0.210302 -0.614046 -0.160333 0.000000 -1.000000 -0.000000 29 29 29 1.000000
0.447703 -0.206214 -0.057508 0.000000 -0.199368 -0.979925 29 29 29 1.000000
-0.666783 -0.003938 0.081802 0.000000 -0.199368 -0.979925 29 29 29 1.000000
0.254522 0.530308 -0.117123 0.000000 0.199368 0.979925 29 29 29 1.000000
0.515775 -0.162622 0.114087 0.000000 -0.199368 -0.979925 29 29 29 1.000000
0.725595 -0.313305 0.037008 -0.285819 0.187939 0.939674 29 29 29 1.000000
0.259256 -0.593584 -0.023564 0.997891 0.000000 -0.064916 29 29 29 1.000000
0.093872 -0.513553 -0.150730 1.000000 0.000000 0.000000 29 29 29 1.000000
-0.286723 -0.099772 0.101300 0.000000 0.199368 0.979925 29 29 29 1.000000
-0.547620 -0.305657 0.052956 0.000000 -0.199368 -0.979925 29 29 29 1.000000
0.565014 -0.322174 0.056316 0.000000 -0.199368 -0.979925 29 29 29 1.000000
-0.101466 -0.415769 -0.153200 0.000000 -0.147809 0.989016 29 29 29 1.000000
0.234762 0.143577 -0.128674 0.000000 0.199368 0.979925 29 29 29 1.000000
-0.657526 0.361494 0.007454 0.000000 0.199368 0.979925 29 29 29 1.000000
-0.127017 -0.614046 0.051030 0.000000 -1.000000 -0.000000 29 29 29 1.000000
-0.249536 -0.352852 0.152790 0.000000 0.199368 0.979925 29 29 29 1.000000
0.254020 -0.576097 0.048277 -0.978077 0.000000 -0.208245 29 29 29 1.000000
-0.318771 0.030111 -0.105589 0.000000 0.199368 0.979925 29 29 29 1.000000
-0.634463 -0.248803 0.131621 0.000000 0.199368 0.979925 29 29 29 1.000000
-0.788402 0.140054 -0.037725 0.000000 0.199368 0.979925 29 29 29 1.000000
-0.206194 0.459108 -0.102637 0.000000 0.199368 0.979925 29 29 29 1.000000
0.817244 0.244053 -0.024663 -1.000000 0.000000 0.000000 29 29 29 1.000000
0.071132 0.281206 -0.156675 0.000000 0.199368 0.979925 29 29 29 1.000000
-0.503049 0.409650 -0.147454 0.000000 0.120742 -0.992684 29 29 29 1.000000
0.157361 0.465944 -0.140607 0.000000 0.120742 -0.992684 29 29 29 1.000000
-0.128832 -0.289342 0.059610 0.000000 0.150211 0.988654 29 29 29 1.000000
-0.489625 0.491140 -0.137542 0.000000 -0.120742 0.992684 29 29 29 1.000000
0.423043 0.085896 -0.026707 0.000000 -0.199368 -0.979925 29 29 29 1.000000
-0.050458 -0.260237 0.026610 0.000000 -0.979925 0.199368 29 29 29 1.000000
0.201973 0.272288 -0.064628 0.000000 0.199368 0.979925 29 29 29 1.000000
0.197106 -0.276947 0.047115 0.000000 -0.199368 -0.979925 29 29 29 1.000000
-0.733804 0.299657 0.020035 0.000000 -0.199368 -0.979925 29 29 29 1.000000
0.446616 0.445549 -0.143087 0.000000 -0.120742 0.992684 29 29 29 1.000000
-0.280412 0.281304 -0.066463 0.000000 0.199368 0.979925 29 29 29 1.000000
0.025061 0.162151 0.048011 0.000000 0.199368 0.979925 29 29 29 1.000000
0.555931 0.449039 -0.142663 0.000000 -0.120742 0.992684 29 29 29 1.000000
-0.603379 -0.414706 0.091789 0.000000 0.979925 -0.199368 29 29 29 1.000000
0.202297 -0.586354 0.158339 -0.780080 0.000000 -0.625680 29 29 29 1.000000
-0.445692 0.341857 0.011449 0.000000 0.199368 0.979925 29 29 29 1.000000
0.199785 0.099947 0.060667 0.000000 0.199368 0.979925 29 29 29 1.000000
-0.297247 0.491182 -0.018931 0.000000 -0.199368 -0.979925 29 29 29 1.000000
0.010216 -0.351535 -0.114953 0.000000 0.147809 -0.989016 29 29 29 1.000000
-0.822531 0.001854 0.080624 0.000000 0.199368 0.979925 29 29 29 1.000000
-0.012367 0.585891 -0.038200 0.000000 -0.199368 -0.979925 29 29 29 1.000000
0.054403 -0.383782 -0.119773 0.000000 0.147809 -0.989016 29 29 29 1.000000
-0.295947 0.063256 -0.112332 0.000000 -0.199368 -0.979925 29 29 29 1.000000
-0.156631 -0.251542 -0.044224 0.000000 -0.499016 -0.866593 29 29 29 1.000000
0.764625 0.279126 -0.078413 0.262716 -0.200333 -0.943847 29 29 29 1.000000
-0.127179 -0.471689 -0.142123 1.000000 0.000000 0.000000 29 29 29 1.000000
0.542969 -0.324754 0.147073 0.000000 -0.199368 -0.979925 29 29 29 1.000000
-0.570113 -0.218051 -0.038486 0.257663 0.192636 0.946837 29 29 29 1.000000
-0.574840 0.024455 -0.014206 0.000000 -0.199368 -0.979925 29 29 29 1.000000
-0.585739 0.004665 -0.010180 0.000000 -0.199368 -0.979925 29 29 29 1.000000
0.127604 0.198200 -0.148027 -1.000000 0.000000 -0.000000 29 29 29 1.000000
-0.028322 -0.368105 -0.117430 0.000000 0.147809 -0.989016 29 29 29 1.000000
0.536309 -0.194096 0.030258 0.000000 -0.199368 -0.979925 29 29 29 1.000000
0.395576 -0.168076 0.024965 0.000000 0.199368 0.979925 29 29 29 1.000000
0.091479 0.098247 -0.029219 0.000000 0.199368 0.979925 29 29 29 1.000000
-0.559342 -0.480481 0.101123 0.000000 -0.979925 0.199368 29 29 29 1.000000
-0.602593 -0.266625 0.135246 0.000000 0.199368 0.979925 29 29 29 1.000000
0.333383 0.409590 -0.002331 0.000000 -0.199368 -0.979925 29 29 29 1.000000
-0.471907 -0.005343 0.082088 0.000000 0.199368 0.979925 29 29 29 1.000000
-0.326867 0.210148 -0.051986 0.000000 -0.199368 -0.979925 29 29 29 1.000000
0.353428 -0.467580 0.164530 0.000000 -0.979925 0.199368 29 29 29 1.000000
0.046625 -0.296539 -0.106734 0.000000 -0.147809 0.989016 29 29 29 1.000000
-0.381967 0.000269 0.080946 0.000000 0.199368 0.979925 29 29 29 1.000000
-0.540204 0.149645 0.050555 0.000000 0.199368 0.979925 29 29 29 1.000000
-0.023108 0.083115 -0.116373 0.000000 0.199368 0.979925 29 29 29 1.000000
-0.416505 0.398923 -0.090393 0.000000 0.199368 0.979925 29 29 29 1.000000
-0.670247 -0.416761 0.165792 0.000000 0.199368 0.979925 29 29 29 1.000000
-0.050876 -0.405573 -0.123029 0.000000 -0.147809 0.989016 29 29 29 1.000000
0.254687 0.420394 -0.004529 0.000000 -0.199368 -0.979925 29 29 29 1.000000
0.031852 0.591371 -0.063482 0.000000 0.979925 -0.199368 29 29 29 1.000000
0.516218 -0.472079 0.142418 0.000000 -0.979925 0.199368 29 29 29 1.000000
-0.554528 0.311603 -0.150487 -0.257663 -0.192636 -0.946837 29 29 29 1.000000
-0.634124 0.480728 -0.107036 0.000000 -0.199368 -0.979925 29 29 29 1.000000
-0.720501 -0.177173 0.117047 0.000000 0.199368 0.979925 29 29 29 1.000000
0.174380 0.027418 0.075423 0.000000 -0.199368 -0.979925 29 29 29 1.000000
0.776122 0.581343 -0.111755 0.100307 0.974983 -0.198362 29 29 29 1.000000
0.035396 -0.518418 -0.168541 0.000000 -0.147809 0.989016 29 29 29 1.000000
-0.312746 -0.350462 0.152303 0.000000 0.199368 0.979925 29 29 29 1.000000
0.313326 -0.153324 -0.068269 0.000000 -0.199368 -0.979925 29 29 29 1.000000
-0.450141 0.031291 -0.105829 0.000000 -0.199368 -0.979925 29 29 29 1.000000
0.164205 -0.569836 -0.127430 0.000000 1.000000 0.000000 29 29 29 1.000000
-0.048467 -0.427953 0.077837 0.000000 -0.199368 -0.979925 29 29 29 1.000000
0.672078 0.136193 -0.073836 0.262716 -0.200333 -0.943847 29 29 29 1.000000
0.485667 -0.321858 0.039352 -1.000000 0.000000 0.000000 29 29 29 1.000000
0.215152 -0.015475 -0.006082 0.000000 0.199368 0.979925 29 29 29 1.000000
-0.035225 -0.433536 -0.155855 0.000000 -0.147809 0.989016 29 29 29 1.000000
0.336168 -0.389477 0.160241 0.000000 0.199368 0.979925 29 29 29 1.000000
-0.267755 -0.369064 0.071723 0.000000 0.150211 0.988654 29 29 29 1.000000
-0.231764 0.586364 -0.038296 0.000000 -0.199368 -0.979925 29 29 29 1.000000
0.074569 -0.469603 0.154588 0.000000 0.979925 -0.199368 29 29 29 1.000000
0.028894 -0.059982 0.093204 0.000000 -0.199368 -0.979925 29 29 29 1.000000
-0.474795 0.218327 -0.053650 0.000000 0.199368 0.979925 29 29 29 1.000000
-0.299942 -0.382598 0.073779 0.000000 -0.150211 -0.988654 29 29 29 1.000000
-0.293240 -0.043908 0.089934 0.000000 -0.199368 -0.979925 29 29 29 1.000000
0.575656 -0.052228 0.001395 0.000000 0.199368 0.979925 29 29 29 1.000000
-0.819927 0.585332 -0.058785 -0.532449 0.829469 -0.168758 29 29 29 1.000000
0.386896 0.251246 -0.060347 0.000000 0.199368 0.979925 29 29 29 1.000000
0.651138 -0.432158 0.078693 0.000000 0.199368 0.979925 29 29 29 1.000000
-0.296611 -0.468935 0.157870 0.000000 -0.979925 0.199368 29 29 29 1.000000
0.144099 0.380237 0.003641 0.000000 -0.199368 -0.979925 29 29 29 1.000000
0.765188 -0.474967 0.128226 0.000000 -0.979925 0.199368 29 29 29 1.000000
-0.632664 -0.239310 0.039457 0.000000 0.199368 0.979925 29 29 29 1.000000
0.055848 -0.031912 0.087494 0.000000 0.199368 0.979925 29 29 29 1.000000
0.173778 -0.400660 0.160825 0.000000 0.979925 -0.199368 29 29 29 1.000000
-0.444503 0.022815 -0.013873 0.000000 -0.199368 -0.979925 29 29 29 1.000000
0.577288 0.020530 -0.013408 0.000000 -0.199368 -0.979925 29 29 29 1.000000
0.121668 -0.040021 0.089143 0.000000 -0.199368 -0.979925 29 29 29 1.000000
0.250330 -0.263690 0.009633 0.000000 -0.979925 0.199368 29 29 29 1.000000
-0.840639 0.408104 -0.010515 1.000000 0.000000 0.000000 29 29 29 1.000000
-0.104473 -0.234169 0.128643 0.000000 0.199368 0.979925 29 29 29 1.000000
-0.419584 -0.269085 -0.016880 0.000000 0.979925 -0.199368 29 29 29 1.000000
0.180005 -0.214885 0.034488 0.000000 -0.199368 -0.979925 29 29 29 1.000000
-0.641932 -0.164095 0.114387 0.000000 0.199368 0.979925 29 29 29 1.000000
-0.756519 -0.149011 0.005828 -0.660231 -0.177062 -0.729893 29 29 29 1.000000
0.802751 0.542321 -0.029335 0.000000 0.199368 0.979925 29 29 29 1.000000
0.180977 -0.105336 -0.078032 0.000000 -0.199368 -0.979925 29 29 29 1.000000
0.623833 0.590207 -0.069200 0.000000 0.979925 -0.199368 29 29 29 1.000000
-0.021652 -0.022258 -0.004702 0.000000 0.199368 0.979925 29 29 29 1.000000
-0.242550 0.322313 0.015426 0.000000 0.199368 0.979925 29 29 29 1.000000
0.588079 0.447630 -0.100302 0.000000 -0.199368 -0.979925 29 29 29 1.000000
0.500737 -0.364516 0.020831 0.000000 -0.499016 -0.866593 29 29 29 1.000000
-0.009442 -0.408216 0.123686 0.000000 -0.979925 0.199368 29 29 29 1.000000
-0.190357 -0.569836 0.133367 0.000000 1.000000 0.000000 29 29 29 1.000000
-0.037031 0.006755 -0.010605 0.000000 -0.199368 -0.979925 29 29 29 1.000000
0.160393 -0.614046 -0.137277 0.000000 1.000000 0.000000 29 29 29 1.000000
0.389125 -0.467221 0.166297 0.000000 0.979925 -0.199368 29 29 29 1.000000
-0.173714 -0.061788 0.003340 0.000000 0.199368 0.979925 29 29 29 1.000000
-0.724049 0.324901 -0.075333 0.000000 -0.199368 -0.979925 29 29 29 1.000000
-0.163395 0.518314 -0.114683 0.000000 0.199368 0.979925 29 29 29 1.000000
0.689324 -0.034323 0.087984 0.000000 0.199368 0.979925 29 29 29 1.000000
0.310908 -0.476351 0.121422 0.000000 0.979925 -0.199368 29 29 29 1.000000
0.679806 -0.266512 0.013721 -0.285819 0.187939 0.939674 29 29 29 1.000000
-0.308818 -0.254796 0.053352 0.000000 0.979925 -0.199368 29 29 29 1.000000
0.325746 0.332527 -0.156834 0.000000 -0.120742 0.992684 29 29 29 1.000000
0.206880 -0.462102 0.085859 0.000000 -0.150211 -0.988654 29 29 29 1.000000
0.145951 -0.569836 0.209670 0.000000 1.000000 0.000000 29 29 29 1.000000
-0.716305 -0.275902 0.046902 0.000000 -0.199368 -0.979925 29 29 29 1.000000
0.417707 -0.168963 0.115377 0.000000 -0.199368 -0.979925 29 29 29 1.000000
0.706603 0.108167 -0.031238 0.000000 0.199368 0.979925 29 29 29 1.000000
-0.084186 -0.319655 0.055804 0.000000 -0.199368 -0.979925 29 29 29 1.000000
-0.084675 -0.414570 0.078637 0.000000 -0.150211 -0.988654 29 29 29 1.000000
-0.794616 0.559243 -0.128334 0.079628 -0.036714 0.996148 29 29 29 1.000000
-0.114601 -0.346729 -0.114235 0.000000 0.147809 -0.989016 29 29 29 1.000000
-0.169567 -0.140322 -0.070914 0.000000 -0.199368 -0.979925 29 29 29 1.000000
0.429427 -0.040163 0.089172 0.000000 -0.199368 -0.979925 29 29 29 1.000000
0.419714 -0.198023 -0.059174 0.000000 0.199368 0.979925 29 29 29 1.000000
-0.440793 -0.425320 0.077302 0.000000 -0.199368 -0.979925 29 29 29 1.000000
0.525111 -0.050643 0.001073 0.000000 -0.199368 -0.979925 29 29 29 1.000000
0.042078 -0.614046 -0.003625 0.000000 -1.000000 -0.000000 29 29 29 1.000000
0.427833 -0.237798 0.039150 0.000000 0.199368 0.979925 29 29 29 1.000000
-0.061354 -0.473734 0.134283 0.000000 -0.979925 0.199368 29 29 29 1.000000
0.330727 -0.080801 0.007208 0.000000 0.199368 0.979925 29 29 29 1.000000
0.004572 -0.465561 -0.160642 0.000000 -0.147809 0.989016 29 29 29 1.000000
-0.369942 0.581884 -0.110110 0.000000 -0.979925 0.199368 29 29 29 1.000000
-0.194429 -0.251961 0.042031 0.000000 0.199368 0.979925 29 29 29 1.000000
-0.529545 0.350234 0.009745 0.000000 0.199368 0.979925 29 29 29 1.000000
0.535864 0.240318 0.032108 0.000000 -0.199368 -0.979925 29 29 29 1.000000
-0.582971 -0.481557 0.095832 0.000000 0.979925 -0.199368 29 29 29 1.000000
-0.105213 -0.569836 0.196042 0.000000 -1.000000 -0.000000 29 29 29 1.000000
0.399229 0.533388 -0.117750 0.000000 0.199368 0.979925 29 29 29 1.000000
0.405727 0.409390 -0.002290 0.000000 -0.199368 -0.979925 29 29 29 1.000000
0.102525 0.019195 -0.013136 0.000000 0.199368 0.979925 29 29 29 1.000000
-0.754680 -0.019126 -0.005340 0.000000 -0.199368 -0.979925 29 29 29 1.000000
-0.009908 -0.569836 0.010250 0.000000 1.000000 0.000000 29 29 29 1.000000
0.222892 -0.171454 -0.064580 0.000000 -0.199368 -0.979925 29 29 29 1.000000
-0.538032 0.416459 -0.146626 0.000000 -0.120742 0.992684 29 29 29 1.000000
-0.349410 -0.000620 -0.099337 0.000000 -0.199368 -0.979925 29 29 29 1.000000
0.656006 -0.083950 0.007849 0.000000 0.199368 0.979925 29 29 29 1.000000
0.123012 -0.448278 0.172204 0.000000 -0.199368 -0.979925 29 29 29 1.000000
-0.692789 0.580977 -0.114570 0.000000 0.979925 -0.199368 29 29 29 1.000000
-0.835830 -0.457258 0.093061 0.893102 0.440822 -0.089686 29 29 29 1.000000
-0.416406 0.120680 0.056448 0.000000 -0.199368 -0.979925 29 29 29 1.000000
-0.316532 0.260723 0.027956 0.000000 0.199368 0.979925 29 29 29 1.000000
-0.736748 -0.007852 -0.026373 0.294086 0.190552 0.936591 29 29 29 1.000000
-0.434830 -0.151120 0.021515 0.000000 -0.199368 -0.979925 29 29 29 1.000000
-0.670298 -0.414464 0.092976 0.000000 0.979925 -0.199368 29 29 29 1.000000
0.294651 -0.367698 0.065578 0.000000 -0.199368 -0.979925 29 29 29 1.000000
0.081775 -0.569836 -0.200295 0.000000 -1.000000 -0.000000 29 29 29 1.000000
-0.008518 -0.391358 -0.149552 0.000000 -0.147809 0.989016 29 29 29 1.000000
0.354508 -0.019493 0.084967 0.000000 0.199368 0.979925 29 29 29 1.000000
0.604169 -0.233530 0.038281 0.000000 -0.199368 -0.979925 29 29 29 1.000000
0.576847 -0.257962 0.043252 0.000000 0.199368 0.979925 29 29 29 1.000000
-0.618372 0.130283 -0.096223 -0.257663 -0.192636 -0.946837 29 29 29 1.000000
-0.441110 -0.091758 -0.080794 0.000000 0.199368 0.979925 29 29 29 1.000000
0.697591 -0.410734 0.047976 -0.285819 0.187939 0.939674 29 29 29 1.000000
0.582821 0.308057 -0.071906 0.000000 -0.199368 -0.979925 29 29 29 1.000000
0.183574 -0.068225 0.094882 0.000000 -0.199368 -0.979925 29 29 29 1.000000
-0.644783 0.056563 -0.068355 -0.294086 -0.190552 -0.936591 29 29 29 1.000000
0.697358 0.025327 -0.014384 0.000000 -0.199368 -0.979925 29 29 29 1.000000
0.204359 -0.614046 -0.124819 0.000000 1.000000 0.000000 29 29 29 1.000000
-0.109169 -0.074631 -0.084279 0.000000 0.199368 0.979925 29 29 29 1.000000
0.274538 0.069035 -0.113508 0.000000 0.199368 0.979925 29 29 29 1.000000
0.359659 -0.172308 0.025826 0.000000 -0.199368 -0.979925 29 29 29 1.000000
-0.400414 0.428261 -0.096362 0.000000 0.199368 0.979925 29 29 29 1.000000
0.803203 -0.135990 0.018437 0.000000 0.199368 0.979925 29 29 29 1.000000
0.054661 0.413142 -0.093286 0.000000 -0.199368 -0.979925 29 29 29 1.000000
0.558851 0.264696 -0.063084 0.000000 0.199368 0.979925 29 29 29 1.000000
0.030250 -0.409274 0.118486 0.000000 0.979925 -0.199368 29 29 29 1.000000
0.225513 -0.064984 0.094222 0.000000 -0.199368 -0.979925 29 29 29 1.000000
-0.281114 0.325663 0.014744 0.000000 -0.199368 -0.979925 29 29 29 1.000000
0.259014 -0.410382 0.164494 0.000000 0.199368 0.979925 29 29 29 1.000000
-0.087895 0.003502 -0.100175 0.000000 -0.199368 -0.979925 29 29 29 1.000000
-0.745763 0.447044 -0.009951 0.000000 0.199368 0.979925 29 29 29 1.000000
0.030617 -0.142862 -0.090656 0.000000 -0.979925 0.199368 29 29 29 1.000000
0.182998 0.288221 -0.158102 0.000000 0.199368 0.979925 29 29 29 1.000000
-0.582170 -0.298122 0.051423 0.000000 0.199368 0.979925 29 29 29 1.000000
-0.002161 -0.614046 0.003712 0.000000 1.000000 0.000000 29 29 29 1.000000
0.043550 -0.210651 -0.093898 0.000000 -0.147809 0.989016 29 29 29 1.000000
0.741339 -0.314749 0.054805 0.000000 -0.199368 -0.979925 29 29 29 1.000000
-0.023928 0.416924 -0.003823 0.000000 -0.199368 -0.979925 29 29 29 1.000000
-0.557837 -0.116539 -0.060438 0.294086 0.190552 0.936591 29 29 29 1.000000
0.545783 0.012110 0.078537 0.000000 0.199368 0.979925 29 29 29 1.000000
-0.197293 0.130322 -0.035745 0.000000 0.199368 0.979925 29 29 29 1.000000
-0.823204 -0.085466 0.098389 0.000000 -0.199368 -0.979925 29 29 29 1.000000
0.659638 0.181178 0.044140 0.000000 -0.199368 -0.979925 29 29 29 1.000000
-0.067885 -0.368935 0.071703 0.000000 0.150211 0.988654 29 29 29 1.000000
0.771304 0.569090 -0.034782 0.000000 0.199368 0.979925 29 29 29 1.000000
0.191122 0.349201 -0.154806 0.000000 0.120742 -0.992684 29 29 29 1.000000
0.570762 -0.187900 0.028998 0.000000 -0.199368 -0.979925 29 29 29 1.000000
-0.031086 -0.404067 0.144081 0.000000 -0.979925 0.199368 29 29 29 1.000000
0.174709 -0.179623 0.117546 0.000000 -0.199368 -0.979925 29 29 29 1.000000
0.617666 0.140356 -0.086572 0.294086 -0.190552 -0.936591 29 29 29 1.000000
-0.444097 0.259316 -0.152221 0.000000 -0.199368 -0.979925 29 29 29 1.000000
0.101157 0.239407 -0.158061 0.286876 -0.938737 0.190984 29 29 29 1.000000
-0.425443 -0.027892 0.086676 0.000000 0.199368 0.979925 29 29 29 1.000000
0.056964 -0.000885 -0.009051 0.000000 -0.199368 -0.979925 29 29 29 1.000000
-0.206232 0.156300 -0.041031 0.000000 0.199368 0.979925 29 29 29 1.000000
0.661349 -0.046664 0.090495 0.000000 0.199368 0.979925 29 29 29 1.000000
-0.777282 0.105784 -0.030753 0.000000 0.199368 0.979925 29 29 29 1.000000
-0.755505 0.236715 -0.057391 0.000000 0.199368 0.979925 29 29 29 1.000000
-0.607655 0.557503 -0.129470 0.000000 -0.120742 0.992684 29 29 29 1.000000
-0.069375 -0.266197 -0.002686 0.000000 0.979925 -0.199368 29 29 29 1.000000
0.591441 0.149892 -0.039727 0.000000 -0.199368 -0.979925 29 29 29 1.000000
0.598518 -0.456734 0.083693 0.000000 0.199368 0.979925 29 29 29 1.000000
0.570467 -0.021472 -0.004862 0.000000 -0.199368 -0.979925 29 29 29 1.000000
0.582440 0.446968 -0.009936 0.000000 -0.199368 -0.979925 29 29 29 1.000000
0.365791 0.175953 -0.135261 0.000000 -0.199368 -0.979925 29 29 29 1.000000
0.558118 -0.447397 0.068557 0.000000 0.499016 0.866593 29 29 29 1.000000
0.547250 0.103501 -0.030288 0.000000 -0.199368 -0.979925 29 29 29 1.000000
0.303240 0.340817 -0.155826 0.000000 -0.120742 0.992684 29 29 29 1.000000
-0.017501 0.350307 -0.154672 0.000000 0.120742 -0.992684 29 29 29 1.000000
-0.591935 -0.411245 0.164670 0.000000 0.199368 0.979925 29 29 29 1.000000
0.342452 0.207446 0.038796 0.000000 -0.199368 -0.979925 29 29 29 1.000000
-0.263206 -0.229438 0.037449 0.000000 -0.199368 -0.979925 29 29 29 1.000000
0.804374 0.282066 -0.067973 0.262716 -0.200333 -0.943847 29 29 29 1.000000
0.064975 -0.569836 0.226341 0.000000 -1.000000 -0.000000 29 29 29 1.000000
0.154302 0.524653 -0.133466 0.000000 0.120742 -0.992684 29 29 29 1.000000
0.336484 -0.410501 0.112457 0.000000 -0.979925 0.199368 29 29 29 1.000000
0.072599 0.117252 -0.033086 0.000000 -0.199368 -0.979925 29 29 29 1.000000
0.120852 -0.614046 0.160027 0.000000 1.000000 0.000000 29 29 29 1.000000
0.580272 0.587371 -0.083143 0.000000 -0.979925 0.199368 29 29 29 1.000000
-0.612689 0.132547 -0.036198 0.000000 0.199368 0.979925 29 29 29 1.000000
0.324035 -0.320609 0.055998 0.000000 0.199368 0.979925 29 29 29 1.000000
0.176384 -0.569836 -0.172169 0.000000 -1.000000 -0.000000 29 29 29 1.000000
0.076984 -0.415539 0.087692 0.000000 0.979925 -0.199368 29 29 29 1.000000
-0.583520 -0.318999 0.055670 0.000000 -0.199368 -0.979925 29 29 29 1.000000
-0.008079 -0.614046 0.138527 0.000000 -1.000000 -0.000000 29 29 29 1.000000
-0.287893 0.429648 -0.145021 0.000000 0.120742 -0.992684 29 29 29 1.000000
-0.667148 0.207820 0.038720 0.000000 0.199368 0.979925 29 29 29 1.000000
-0.840639 0.378489 -0.074185 -1.000000 0.000000 0.000000 29 29 29 1.000000
-0.608097 0.453239 -0.101443 0.000000 -0.199368 -0.979925 29 29 29 1.000000
0.681054 0.015609 -0.042324 -0.285819 0.187939 0.939674 29 29 29 1.000000
-0.531525 -0.461365 0.076600 0.000000 0.499016 0.866593 29 29 29 1.000000
-0.196293 -0.569836 -0.066882 0.000000 -1.000000 -0.000000 29 29 29 1.000000
0.445776 0.041381 -0.107882 0.000000 0.199368 0.979925 29 29 29 1.000000
0.743498 0.404091 -0.091444 0.000000 0.199368 0.979925 29 29 29 1.000000
0.047819 0.510803 -0.135150 0.000000 0.120742 -0.992684 29 29 29 1.000000
0.701331 0.550673 -0.121267 0.000000 0.199368 0.979925 29 29 29 1.000000
-0.333410 -0.007850 -0.007634 0.000000 0.199368 0.979925 29 29 29 1.000000
0.668105 -0.478118 0.112736 0.000000 -0.979925 0.199368 29 29 29 1.000000
0.816064 -0.339404 0.150054 0.000000 0.199368 0.979925 29 29 29 1.000000
0.768280 0.213638 -0.052696 0.000000 -0.199368 -0.979925 29 29 29 1.000000
0.282949 -0.267813 -0.010632 0.000000 0.979925 -0.199368 29 29 29 1.000000
0.327044 -0.017084 -0.095987 0.000000 0.199368 0.979925 29 29 29 1.000000
