ply
format ascii 1.0
element vertex 1263
property float x
property float y
property float z
property uchar red
property uchar green
property uchar blue
end_header
-0.014438 0.215915 -0.145758 76 153 0
0.515913 -0.363317 0.157265 153 0 76
-0.561000 0.049085 0.073112 153 0 76
0.333790 -0.033994 -0.094913 76 153 0
-0.331329 -0.160202 -0.069228 76 153 0
0.152292 -0.479805 0.116047 76 153 0
0.038961 -0.614046 -0.118474 0 127 127
0.285032 -0.401332 0.164667 76 153 0
0.251995 -0.048537 0.092443 153 0 76
0.251390 -0.292971 0.142967 153 0 76
-0.441410 -0.065639 -0.088476 76 153 0
-0.127179 -0.500156 -0.153182 127 0 127
0.165641 -0.569836 0.153535 0 127 127
-0.748750 0.476195 -0.132351 76 153 0
-0.842412 0.533763 -0.094250 76 153 0
-0.506552 -0.450965 0.073010 76 153 0
0.077929 -0.078575 -0.085751 76 153 0
-0.061232 0.446985 -0.145249 76 153 0
0.295364 0.142921 -0.130909 76 153 0
-0.534155 -0.160234 0.115863 153 0 76
0.038662 -0.478732 -0.133963 127 0 127
-0.508905 -0.049272 0.093311 153 0 76
0.530941 0.056042 0.071307 153 0 76
0.072866 0.072360 -0.116454 76 153 0
0.403362 -0.027405 0.087916 153 0 76
0.089180 0.393202 -0.151790 76 153 0
0.162794 -0.614046 -0.071770 0 127 127
0.752431 0.097224 0.063564 76 153 0
0.690966 0.007029 0.080841 153 0 76
0.168246 -0.586365 0.195799 0 127 127
-0.207437 -0.473668 0.145753 76 153 0
-0.233395 0.040335 0.075008 153 0 76
0.480399 -0.013488 -0.097889 76 153 0
0.425556 0.021062 -0.106100 76 153 0
-0.203509 0.564004 -0.130910 76 153 0
-0.128262 -0.584902 0.224946 0 127 127
0.414575 -0.110864 0.104897 153 0 76
-0.200343 -0.569836 0.006467 0 127 127
-0.707841 0.484017 -0.139503 76 153 0
0.297016 -0.268180 -0.001333 76 153 0
0.755158 0.349497 0.012223 76 153 0
0.135632 -0.614046 -0.205123 0 127 127
-0.082576 -0.569836 -0.256745 0 127 127
-0.808346 -0.185446 0.120160 76 153 0
-0.457018 0.471019 -0.142320 76 153 0
-0.642798 -0.235871 -0.017495 76 153 0
-0.266894 0.408401 -0.149942 76 153 0
0.419079 -0.258544 0.135865 153 0 76
0.161124 -0.126351 -0.076123 76 153 0
0.634276 -0.133081 -0.034374 76 153 0
0.802691 0.105507 0.061158 76 153 0
-0.510231 -0.326017 0.003651 76 153 0
0.150320 -0.206501 0.125378 153 0 76
0.661939 -0.267837 0.136787 153 0 76
-0.141025 0.593614 -0.064042 76 153 0
0.818902 -0.019216 0.060561 76 153 0
-0.115119 -0.569836 0.172227 0 127 127
0.686684 -0.161938 -0.014208 76 153 0
-0.834223 0.306292 0.017880 76 153 0
0.795326 -0.196336 0.022420 76 153 0
-0.081883 -0.164124 -0.115592 127 0 127
-0.116290 -0.180462 0.120059 153 0 76
-0.480173 -0.034115 0.090304 153 0 76
-0.640726 -0.120008 -0.041608 76 153 0
0.201377 -0.054270 0.094030 153 0 76
-0.679609 -0.328201 0.011384 76 153 0
-0.413123 0.501990 -0.138432 76 153 0
-0.188687 -0.110715 -0.079214 76 153 0
0.812891 0.563388 -0.086057 76 153 0
-0.039617 -0.320972 -0.139033 127 0 127
-0.046281 -0.569836 0.225527 0 127 127
-0.362592 0.285844 0.024612 153 0 76
0.348531 -0.386579 0.161672 153 0 76
0.150840 -0.245620 0.133236 153 0 76
0.320661 -0.437462 0.077453 76 153 0
-0.146980 -0.266897 0.014373 76 153 0
0.389725 0.039074 -0.109781 76 153 0
-0.613541 0.015857 -0.076596 76 153 0
-0.447178 -0.470065 0.162957 76 153 0
0.084653 -0.035990 0.090685 153 0 76
0.110385 -0.610426 0.233172 0 127 127
0.594550 -0.379365 0.160271 153 0 76
0.135304 -0.190407 0.122104 153 0 76
-0.178278 0.204949 -0.143526 76 153 0
0.173820 -0.575936 -0.200983 0 127 127
-0.064114 -0.557192 -0.145689 127 0 127
0.043607 0.066425 -0.115287 76 153 0
-0.296029 -0.272244 0.033702 76 153 0
-0.342257 -0.086295 0.100877 153 0 76
-0.351923 0.094868 0.062942 153 0 76
-0.408477 0.025760 0.078010 153 0 76
-0.375612 0.588726 -0.087803 76 153 0
-0.842942 0.344087 -0.048157 76 153 0
0.218394 0.329175 0.016393 153 0 76
-0.637164 0.594060 -0.061567 76 153 0
-0.479557 -0.379479 0.064312 76 153 0
-0.828007 0.127560 -0.040899 76 153 0
0.818952 -0.211217 0.077358 76 153 0
0.573316 0.590063 -0.081517 76 153 0
-0.771426 -0.289147 0.028428 76 153 0
0.106737 -0.478953 0.120241 76 153 0
-0.131620 -0.569836 0.172108 0 127 127
0.781348 0.103837 0.062217 76 153 0
-0.112680 -0.430621 0.170874 76 153 0
0.014902 0.576577 -0.125224 76 153 0
-0.028159 -0.037290 0.090943 153 0 76
-0.539837 0.174308 -0.128970 76 153 0
0.160148 -0.210360 -0.059004 76 153 0
0.496076 0.065216 0.069619 153 0 76
0.099404 0.443682 -0.006960 153 0 76
0.586745 0.128915 0.057131 153 0 76
0.466154 -0.079794 0.098483 153 0 76
0.818082 -0.257017 0.118788 76 153 0
-0.353166 0.582578 -0.116144 76 153 0
0.207358 -0.244909 0.133091 153 0 76
0.114047 0.158857 0.051044 153 0 76
-0.591223 -0.236813 -0.031323 76 153 0
-0.606578 0.320384 0.017159 153 0 76
-0.313735 -0.429724 0.170691 76 153 0
-0.058874 -0.079914 0.099530 153 0 76
-0.205837 -0.614046 -0.118513 0 127 127
-0.571783 0.118821 -0.108990 76 153 0
-0.710581 0.066618 0.069239 153 0 76
-0.056071 -0.614046 -0.210189 0 127 127
0.616420 -0.425369 0.169673 76 153 0
0.819206 0.497943 -0.073134 76 153 0
-0.214121 -0.363880 0.062548 76 153 0
0.034361 0.442934 -0.006802 153 0 76
-0.582192 -0.098327 -0.061973 76 153 0
-0.249403 -0.265064 0.137222 153 0 76
-0.018535 -0.236929 -0.052530 76 153 0
-0.176663 -0.614046 -0.038216 0 127 127
-0.000654 -0.001182 0.083606 153 0 76
0.219709 -0.614046 0.004306 0 127 127
-0.179334 0.276870 -0.158035 76 153 0
-0.126120 -0.614046 0.074051 0 127 127
-0.110728 0.581192 -0.118297 76 153 0
0.141100 -0.614046 0.191439 0 127 127
0.658327 -0.136284 -0.027056 76 153 0
-0.584676 -0.482397 0.097691 76 153 0
0.249330 -0.599236 -0.080292 0 127 127
-0.100193 -0.037650 0.091015 153 0 76
-0.079379 0.506648 -0.019716 153 0 76
-0.006321 -0.247796 -0.128097 127 0 127
0.093370 0.488420 -0.016029 153 0 76
-0.542837 0.587055 -0.095722 76 153 0
-0.237466 -0.569836 0.048907 0 127 127
-0.106958 -0.580747 -0.249335 0 127 127
0.145159 0.401945 0.001587 153 0 76
0.173133 -0.569836 0.017016 0 127 127
0.157545 -0.268286 -0.001864 76 153 0
-0.463174 -0.066791 -0.088241 76 153 0
0.687027 -0.140639 0.110877 153 0 76
0.754785 0.018997 -0.032499 76 153 0
0.062477 -0.517155 -0.168353 127 0 127
-0.537459 0.053914 -0.105110 76 153 0
-0.244016 -0.111534 -0.079053 76 153 0
0.232674 -0.614046 -0.071816 0 127 127
0.362064 0.418579 -0.148704 76 153 0
-0.214169 -0.377638 0.160194 153 0 76
-0.073525 -0.444091 0.173606 76 153 0
0.238123 0.501265 -0.138520 76 153 0
-0.475576 -0.271555 -0.034804 76 153 0
-0.281725 0.403454 -0.150543 76 153 0
0.444427 0.172350 -0.136793 76 153 0
0.632208 0.429272 -0.145890 76 153 0
-0.021910 0.426603 -0.003429 153 0 76
-0.543043 -0.259804 0.136121 153 0 76
0.527022 -0.094942 -0.071319 76 153 0
0.007860 -0.252766 -0.100192 127 0 127
0.641039 -0.157269 -0.027493 76 153 0
-0.172444 -0.474982 0.087194 76 153 0
0.093872 -0.484721 -0.157197 127 0 127
-0.237742 -0.446676 0.079399 76 153 0
-0.741723 0.390482 -0.117976 76 153 0
0.755762 -0.071916 -0.013734 76 153 0
0.022171 0.005117 -0.102756 76 153 0
0.599955 -0.349676 0.009871 76 153 0
0.001210 -0.393127 -0.121169 127 0 127
0.529830 -0.288399 -0.025194 76 153 0
0.275395 -0.189796 -0.063112 76 153 0
0.021330 -0.278801 -0.132730 127 0 127
-0.307074 0.056723 0.071444 153 0 76
-0.244733 -0.584841 -0.111800 0 127 127
0.186994 0.404738 -0.150387 76 153 0
-0.049195 -0.421840 -0.125460 127 0 127
0.413186 -0.289080 0.047329 76 153 0
0.803193 -0.274622 0.040474 76 153 0
0.271895 -0.270996 0.031394 76 153 0
0.056990 -0.614046 0.168171 0 127 127
0.668027 -0.411412 0.166659 76 153 0
0.201841 -0.260609 -0.041623 76 153 0
0.216065 -0.614046 -0.076950 0 127 127
-0.127179 -0.277202 -0.105941 127 0 127
-0.796026 0.498679 -0.124843 76 153 0
0.404476 0.461490 -0.143482 76 153 0
-0.141216 0.413471 -0.000758 153 0 76
-0.164326 -0.332130 0.150822 153 0 76
-0.217093 -0.310321 0.146489 153 0 76
0.808954 0.240813 -0.060290 76 153 0
-0.074801 -0.413915 0.167493 76 153 0
-0.420812 0.344788 0.013127 153 0 76
0.284157 -0.350587 0.154580 153 0 76
-0.595439 0.121792 -0.103097 76 153 0
0.271871 -0.333151 0.151030 153 0 76
-0.776661 -0.361914 0.156628 76 153 0
-0.165163 -0.569836 0.025054 0 127 127
-0.400354 -0.070002 0.097506 153 0 76
0.092547 0.412557 -0.000572 153 0 76
-0.146478 -0.094115 0.102513 153 0 76
-0.413472 -0.474674 0.140965 76 153 0
-0.228734 -0.281006 0.140534 153 0 76
-0.442206 -0.157937 -0.069697 76 153 0
-0.024427 -0.442481 -0.157193 127 0 127
0.046956 -0.497366 -0.165395 127 0 127
0.254218 0.055239 -0.113069 76 153 0
0.106440 -0.432883 0.171334 76 153 0
0.723757 -0.467781 0.169205 76 153 0
-0.067745 -0.569836 0.189380 0 127 127
-0.472990 -0.040152 -0.093660 76 153 0
0.341169 0.235964 0.035353 153 0 76
-0.271354 -0.020916 0.087619 153 0 76
0.285529 0.083101 -0.118620 76 153 0
-0.127150 0.314782 -0.160926 76 153 0
0.555497 0.036218 -0.090268 76 153 0
-0.090183 0.021649 0.078847 153 0 76
-0.759446 -0.478360 0.123156 76 153 0
0.427225 0.271263 -0.156898 76 153 0
0.048342 -0.614046 -0.249566 0 127 127
0.544094 0.470875 -0.142338 76 153 0
-0.834646 0.451444 -0.104505 76 153 0
-0.024828 -0.460536 -0.131244 127 0 127
0.596715 0.302547 0.021765 153 0 76
0.013872 -0.155437 -0.073478 127 0 127
-0.113192 0.106915 -0.123520 76 153 0
-0.144005 0.272896 0.027743 153 0 76
0.156299 -0.374238 0.159327 153 0 76
-0.080675 -0.556188 -0.174186 127 0 127
0.219947 0.106820 0.061609 153 0 76
0.370110 0.290790 -0.160293 76 153 0
0.021657 0.120692 -0.126385 76 153 0
-0.337520 -0.112315 0.106215 153 0 76
-0.000775 -0.569836 0.034849 0 127 127
0.054022 -0.319033 -0.110096 127 0 127
0.004494 -0.330370 -0.140437 127 0 127
-0.117092 -0.173862 -0.082459 127 0 127
-0.273297 -0.475600 0.136570 76 153 0
0.713887 -0.267114 0.136890 153 0 76
-0.066583 -0.241199 -0.098463 127 0 127
0.476391 0.042070 0.073792 153 0 76
-0.679940 -0.008439 0.085082 153 0 76
-0.714565 0.046204 0.073736 153 0 76
-0.277305 -0.164794 0.116791 153 0 76
-0.009374 0.258298 0.030782 153 0 76
0.076932 -0.614046 0.121372 0 127 127
-0.472464 -0.468160 0.168671 76 153 0
0.001098 -0.300835 -0.107376 127 0 127
-0.035304 -0.496320 -0.165239 127 0 127
0.480723 0.352731 -0.156590 76 153 0
-0.189328 -0.569836 -0.003733 0 127 127
-0.176647 0.593393 -0.065030 76 153 0
0.644604 -0.424288 0.169425 76 153 0
0.329300 0.526121 -0.023675 76 153 0
0.450647 0.302759 -0.161026 76 153 0
-0.122007 -0.151524 -0.071423 127 0 127
-0.100645 0.222432 0.038103 153 0 76
-0.812539 0.146972 -0.049185 76 153 0
0.302641 0.581912 -0.117751 76 153 0
-0.120464 0.535703 -0.134457 76 153 0
0.457028 0.579759 -0.120766 76 153 0
0.495880 0.595096 -0.055414 76 153 0
0.087980 -0.614046 -0.066119 0 127 127
0.747081 0.119623 -0.055095 76 153 0
-0.719781 0.460177 -0.136891 76 153 0
0.347726 0.462297 -0.143384 76 153 0
0.370803 0.323173 0.017614 153 0 76
0.396766 0.140589 -0.130434 76 153 0
-0.056332 -0.598698 0.251088 0 127 127
0.750080 0.473199 -0.126187 76 153 0
0.323281 0.037837 0.074542 153 0 76
0.726132 0.528106 -0.024086 76 153 0
-0.076240 -0.042826 -0.093117 76 153 0
0.438634 0.118365 -0.125912 76 153 0
-0.392785 -0.201847 -0.060686 76 153 0
0.746432 -0.422563 0.057774 76 153 0
0.227162 -0.575100 -0.134588 0 127 127
-0.127179 -0.208071 -0.107893 127 0 127
-0.693293 -0.239768 -0.002902 76 153 0
-0.128542 0.212004 -0.144962 76 153 0
-0.093315 -0.569836 -0.077118 0 127 127
0.819364 -0.139571 0.034269 76 153 0
0.817350 0.463190 -0.025226 76 153 0
0.554254 0.586813 -0.096912 76 153 0
-0.268380 -0.435209 0.171806 76 153 0
0.768858 0.270361 0.028258 76 153 0
-0.712908 0.245671 0.032362 153 0 76
-0.842955 -0.401214 0.127748 76 153 0
-0.298170 0.472885 -0.012947 153 0 76
0.570539 0.003886 -0.079453 76 153 0
0.252573 0.463092 -0.143287 76 153 0
0.633882 -0.374836 0.159437 153 0 76
-0.015195 0.492733 -0.016884 153 0 76
-0.680865 -0.151109 0.114006 153 0 76
0.757907 -0.184348 0.009741 76 153 0
-0.699487 0.101868 -0.070808 76 153 0
0.160266 0.236649 0.035214 153 0 76
0.532139 -0.479414 0.117971 76 153 0
-0.800907 -0.059317 0.094902 76 153 0
0.592329 0.421288 -0.148341 76 153 0
-0.704083 -0.199727 0.124000 153 0 76
0.136043 0.560632 -0.131341 76 153 0
-0.640452 0.157589 -0.098166 76 153 0
-0.783094 -0.328821 0.149698 76 153 0
0.770998 -0.164136 0.009206 76 153 0
0.051090 -0.569836 -0.031805 0 127 127
-0.541608 -0.107154 0.105165 153 0 76
0.353454 0.589653 -0.038619 76 153 0
0.608992 -0.179717 0.118880 153 0 76
0.051299 -0.153939 -0.093319 127 0 127
0.488058 -0.471230 0.157708 76 153 0
-0.597091 -0.042957 -0.069164 76 153 0
-0.528642 0.374047 0.006420 153 0 76
0.221910 0.594462 -0.045669 76 153 0
0.025889 -0.614046 -0.192304 0 127 127
0.036890 -0.569836 0.219681 0 127 127
-0.118932 -0.331197 -0.111914 127 0 127
0.250688 -0.144565 0.112675 153 0 76
0.010964 0.097158 -0.121480 76 153 0
0.236725 -0.569836 -0.106006 0 127 127
0.805876 0.037239 0.074746 76 153 0
0.475930 -0.394531 0.058426 76 153 0
-0.741565 -0.287237 0.019826 76 153 0
-0.144366 -0.598076 0.216716 0 127 127
-0.077167 -0.602704 0.246633 0 127 127
0.676471 0.407132 0.000532 153 0 76
0.069364 0.484981 -0.140515 76 153 0
0.195144 -0.429435 0.075772 76 153 0
-0.842072 0.546858 -0.048830 76 153 0
0.399923 0.549785 -0.132730 76 153 0
-0.513903 0.564312 -0.031562 76 153 0
-0.491689 -0.479615 0.116982 76 153 0
0.517045 -0.330398 -0.001451 76 153 0
0.618170 -0.471229 0.157712 76 153 0
-0.842803 0.006991 0.055923 76 153 0
0.245136 -0.456148 0.175350 76 153 0
-0.840312 -0.411139 0.156596 76 153 0
0.191523 -0.569836 0.044191 0 127 127
-0.706729 -0.333078 0.019703 76 153 0
-0.053985 0.199047 -0.149833 76 153 0
0.691966 -0.245134 0.004148 76 153 0
0.190048 -0.614046 0.021382 0 127 127
-0.368940 0.230760 -0.148779 76 153 0
-0.403362 -0.243968 0.132900 153 0 76
-0.050461 -0.474612 0.086992 76 153 0
-0.802497 -0.212907 0.125854 76 153 0
-0.041381 -0.010226 -0.099635 76 153 0
0.006473 0.548716 -0.132867 76 153 0
0.216134 -0.569836 -0.073331 0 127 127
0.533537 0.090152 -0.107207 76 153 0
0.048067 -0.349314 -0.114621 127 0 127
-0.052930 -0.570145 0.251815 0 127 127
-0.439133 0.340371 -0.158098 76 153 0
0.416000 0.122970 0.058334 153 0 76
0.101085 -0.569836 0.038535 0 127 127
-0.704242 -0.118919 0.107558 153 0 76
0.733718 0.038902 -0.042201 76 153 0
-0.388220 -0.010093 0.085418 153 0 76
0.198713 0.519066 -0.022241 76 153 0
-0.188310 -0.614046 -0.086494 0 127 127
-0.520778 -0.239582 0.132007 153 0 76
0.801306 0.064750 0.069521 76 153 0
-0.660404 0.033298 -0.067409 76 153 0
0.228450 -0.248350 0.133792 153 0 76
0.400901 -0.244699 -0.049833 76 153 0
0.137536 0.136666 0.055555 153 0 76
0.057123 -0.569836 -0.146593 0 127 127
0.819060 0.328580 -0.009411 76 153 0
0.672877 0.137959 -0.078905 76 153 0
-0.273399 -0.472313 0.152398 76 153 0
0.576747 0.343053 -0.146902 76 153 0
0.071739 -0.273193 0.035459 76 153 0
0.811629 0.222779 -0.055781 76 153 0
0.132391 -0.354079 0.155308 153 0 76
0.090322 -0.569836 0.017442 0 127 127
0.089941 0.590854 -0.077311 76 153 0
-0.135723 -0.307306 0.050924 76 153 0
-0.799975 0.355478 -0.094980 76 153 0
-0.057017 -0.569836 -0.007967 0 127 127
0.118384 -0.266895 0.014341 76 153 0
-0.182530 0.253208 -0.153253 76 153 0
0.195633 -0.478097 0.124447 76 153 0
-0.320731 -0.231704 -0.054197 76 153 0
0.145349 0.330434 0.016137 153 0 76
0.511046 0.282722 -0.152337 76 153 0
-0.754844 0.249809 -0.085792 76 153 0
0.368093 0.291477 0.023961 153 0 76
-0.064185 -0.569836 -0.067015 0 127 127
0.322204 0.296868 -0.160878 76 153 0
0.746961 0.038339 0.075338 76 153 0
0.596189 0.098353 0.063334 153 0 76
-0.593667 -0.212159 -0.035699 76 153 0
-0.157126 0.486396 -0.140330 76 153 0
-0.078211 0.479919 -0.014350 153 0 76
0.033051 -0.614046 0.068885 0 127 127
0.242313 0.223481 0.037889 153 0 76
-0.240859 0.511699 -0.137256 76 153 0
0.465564 0.287482 0.024775 153 0 76
-0.709910 0.566123 -0.130124 76 153 0
0.023376 0.593834 -0.060946 76 153 0
-0.145921 0.387207 0.004492 153 0 76
-0.126352 -0.614046 -0.220748 0 127 127
-0.837421 -0.396854 0.071658 76 153 0
0.427653 0.320348 -0.160423 76 153 0
0.004367 0.023211 0.078529 153 0 76
-0.021455 -0.491204 -0.135827 127 0 127
-0.267994 -0.273381 0.035812 76 153 0
-0.030198 -0.300897 0.049655 76 153 0
-0.467749 -0.240608 -0.051357 76 153 0
-0.229366 -0.600992 0.128107 0 127 127
0.488066 -0.264164 0.137032 153 0 76
0.063417 -0.614046 -0.242305 0 127 127
-0.127105 -0.253827 0.134906 153 0 76
0.414401 0.477005 -0.013775 153 0 76
-0.082436 -0.244344 -0.050003 76 153 0
-0.416484 -0.426224 0.169979 76 153 0
0.572572 -0.173048 0.117472 153 0 76
-0.167368 -0.569836 0.070385 0 127 127
-0.513111 0.592733 -0.068423 76 153 0
-0.497030 0.494783 -0.017301 153 0 76
0.040952 -0.356830 -0.144392 127 0 127
0.076533 -0.470957 -0.132801 127 0 127
0.265650 0.471776 -0.142228 76 153 0
0.819524 -0.127397 0.046047 76 153 0
0.774047 -0.220327 0.127496 76 153 0
0.602444 0.225538 0.037471 153 0 76
-0.016311 -0.143031 -0.091489 127 0 127
0.339403 -0.055525 -0.090533 76 153 0
-0.085956 0.355869 0.010872 153 0 76
0.501082 -0.065323 -0.084006 76 153 0
-0.238994 0.071205 -0.116227 76 153 0
-0.045176 0.295243 0.023207 153 0 76
-0.018210 -0.569836 0.121121 0 127 127
-0.214278 -0.614046 0.068576 0 127 127
0.055393 -0.274664 -0.103465 127 0 127
-0.534904 -0.080121 0.099574 153 0 76
-0.002445 -0.266974 -0.037746 76 153 0
-0.097144 -0.519424 -0.140045 127 0 127
-0.640744 0.096701 -0.085667 76 153 0
-0.018943 -0.614046 -0.114344 0 127 127
-0.787580 0.438668 -0.006025 76 153 0
0.271829 -0.006977 -0.100296 76 153 0
-0.826351 -0.116476 0.008306 76 153 0
-0.016047 0.055726 0.071975 153 0 76
-0.368540 0.181332 0.045340 153 0 76
0.066948 -0.230067 -0.125447 127 0 127
0.157623 -0.572322 0.202679 0 127 127
-0.637816 -0.393004 0.034602 76 153 0
0.015021 -0.360159 0.061791 76 153 0
0.033622 0.023176 0.078536 153 0 76
-0.300761 0.563998 -0.130910 76 153 0
0.046080 0.347672 0.012610 153 0 76
-0.250386 -0.603457 0.083869 0 127 127
0.262945 0.329387 0.016350 153 0 76
-0.423285 0.595178 -0.054930 76 153 0
0.362582 0.500901 -0.138564 76 153 0
-0.152391 -0.569836 -0.133766 0 127 127
0.658857 -0.228356 0.128743 153 0 76
-0.214763 -0.614046 -0.143731 0 127 127
0.801784 -0.283952 0.140524 76 153 0
0.806822 0.335169 0.014519 76 153 0
-0.591326 0.592218 -0.070953 76 153 0
-0.222655 0.125308 0.056833 153 0 76
-0.217882 -0.614046 -0.046407 0 127 127
-0.263686 -0.569836 -0.038292 0 127 127
-0.653723 0.195965 0.042361 153 0 76
0.656885 0.089615 -0.073533 76 153 0
-0.550679 -0.235179 0.131111 153 0 76
-0.193874 -0.247605 -0.048444 76 153 0
0.610395 -0.411111 0.166600 76 153 0
-0.056146 -0.569836 0.051356 0 127 127
0.818932 0.357730 -0.011511 76 153 0
0.728460 -0.027406 -0.030126 76 153 0
-0.570551 0.585549 -0.103123 76 153 0
0.636706 -0.238639 0.130793 153 0 76
0.083106 0.594386 -0.057718 76 153 0
0.235779 -0.274263 0.139163 153 0 76
-0.316960 -0.208368 -0.059397 76 153 0
0.449775 0.374132 0.007133 153 0 76
-0.602035 0.505639 -0.019510 153 0 76
0.104550 -0.183970 0.120794 153 0 76
0.010616 -0.569836 -0.069366 0 127 127
0.475594 0.069844 -0.115219 76 153 0
0.331521 -0.432346 0.171224 76 153 0
-0.386189 0.285155 -0.159552 76 153 0
-0.248606 -0.614046 -0.000461 0 127 127
-0.390837 0.357215 0.010586 153 0 76
0.382151 -0.081678 -0.085097 76 153 0
-0.217394 -0.185914 -0.063905 76 153 0
-0.619914 0.035321 -0.078844 76 153 0
-0.802133 0.229649 0.036638 76 153 0
-0.254236 -0.614046 -0.081176 0 127 127
-0.582226 0.532172 -0.134887 76 153 0
-0.267344 -0.243223 0.132748 153 0 76
-0.698204 0.532187 -0.024951 76 153 0
0.213749 0.588325 -0.089688 76 153 0
0.298453 -0.454819 0.175454 76 153 0
-0.759287 0.325405 0.016496 76 153 0
0.451727 0.254493 -0.153506 76 153 0
-0.493243 0.315149 0.018273 153 0 76
-0.650396 -0.471754 0.080136 76 153 0
0.187391 0.427599 -0.003631 153 0 76
-0.036672 -0.192292 -0.062608 76 153 0
0.172849 -0.569836 0.171260 0 127 127
-0.795960 -0.455537 0.175472 76 153 0
0.602766 0.500265 -0.018417 153 0 76
-0.373812 0.536124 -0.134406 76 153 0
-0.611115 -0.111072 -0.051488 76 153 0
-0.780338 0.119274 -0.052302 76 153 0
-0.301882 -0.260873 0.136338 153 0 76
0.498137 0.536864 -0.025942 76 153 0
0.094981 -0.614046 -0.158334 0 127 127
0.044972 -0.614046 -0.071411 0 127 127
0.274298 -0.246984 0.133514 153 0 76
0.717866 -0.243806 0.010970 76 153 0
0.089506 -0.569836 -0.197175 0 127 127
-0.124726 -0.368232 -0.117449 127 0 127
-0.762804 0.329287 -0.099808 76 153 0
-0.470049 -0.269378 0.028044 76 153 0
0.081066 -0.569836 -0.157519 0 127 127
0.009748 -0.558057 -0.145819 127 0 127
0.113100 -0.569836 -0.052152 0 127 127
-0.347471 -0.010603 -0.099558 76 153 0
-0.712148 -0.469529 0.165357 76 153 0
0.595221 0.458276 -0.009974 153 0 76
-0.059577 -0.272720 -0.027843 76 153 0
0.531522 -0.128067 -0.063264 76 153 0
0.713312 0.170286 -0.074576 76 153 0
-0.786955 0.112486 0.060359 76 153 0
-0.171061 -0.614046 0.169112 0 127 127
0.815334 0.139809 -0.035232 76 153 0
0.006683 -0.614046 -0.067728 0 127 127
-0.011465 -0.399771 -0.150810 127 0 127
-0.263260 -0.297026 0.143792 153 0 76
-0.725285 0.024351 0.078297 153 0 76
-0.664936 0.499113 -0.018287 153 0 76
0.000668 -0.535123 -0.171038 127 0 127
-0.057063 -0.220253 -0.123980 127 0 127
0.164082 0.513336 -0.137065 76 153 0
0.062119 -0.569836 -0.090577 0 127 127
0.372921 0.366546 0.008677 153 0 76
-0.599865 0.582486 -0.116721 76 153 0
-0.842956 -0.323365 0.082745 76 153 0
-0.814657 -0.388095 0.060312 76 153 0
0.129539 0.021552 -0.106203 76 153 0
0.168272 -0.252781 -0.045969 76 153 0
-0.532478 -0.035002 0.090484 153 0 76
-0.115558 -0.440693 -0.128278 127 0 127
0.168478 -0.328694 0.150122 153 0 76
0.810640 -0.304760 0.142955 76 153 0
-0.110230 0.415723 -0.149052 76 153 0
-0.446869 -0.036599 0.090807 153 0 76
-0.502705 0.582663 -0.035458 76 153 0
0.165372 -0.614046 0.001836 0 127 127
-0.197596 -0.329287 0.150243 153 0 76
-0.799332 0.578615 -0.034486 76 153 0
-0.586945 0.161315 0.049525 153 0 76
-0.064022 -0.614046 -0.172245 0 127 127
-0.796484 0.292878 -0.083235 76 153 0
0.311554 0.156108 0.051603 153 0 76
-0.000795 -0.467881 0.083992 76 153 0
0.418319 0.215110 0.039586 153 0 76
0.005049 -0.614046 -0.245351 0 127 127
0.387282 -0.426839 0.170007 76 153 0
-0.775363 0.382899 -0.107302 76 153 0
-0.113657 -0.363657 -0.145412 127 0 127
-0.506597 0.155566 -0.131987 76 153 0
-0.070704 -0.466400 0.171193 76 153 0
-0.566438 0.223085 0.036955 153 0 76
0.638655 0.482380 -0.140855 76 153 0
-0.420149 0.377843 -0.153618 76 153 0
-0.648568 0.045584 0.073870 153 0 76
0.278251 -0.480225 0.113938 76 153 0
-0.626805 0.576539 -0.034062 76 153 0
0.701943 0.350830 0.011940 76 153 0
-0.542487 -0.247686 -0.042182 76 153 0
-0.147316 -0.614046 0.001534 0 127 127
-0.144343 0.354327 0.011199 153 0 76
0.594013 -0.263728 -0.018759 76 153 0
0.727752 0.569341 -0.128861 76 153 0
-0.053572 -0.145877 -0.094959 127 0 127
-0.764385 0.025207 0.078123 76 153 0
-0.488755 -0.215373 -0.057838 76 153 0
0.556644 0.310334 0.020226 153 0 76
0.709521 -0.174525 0.117951 153 0 76
-0.805433 -0.226638 0.024957 76 153 0
-0.449432 0.091144 -0.120257 76 153 0
-0.389351 -0.271234 -0.034685 76 153 0
0.252988 -0.595026 0.053103 0 127 127
-0.825337 -0.145073 0.013822 76 153 0
-0.176058 0.585335 -0.036666 76 153 0
-0.127618 0.256386 -0.160054 76 153 0
0.075770 -0.503403 -0.166298 127 0 127
0.078583 0.208335 0.040955 153 0 76
-0.013140 -0.549492 -0.144538 127 0 127
-0.476275 0.159605 -0.134240 76 153 0
0.804200 -0.147201 0.014895 76 153 0
0.256350 -0.570198 0.037379 0 127 127
0.039977 -0.258740 -0.129732 127 0 127
0.323843 0.385205 -0.152763 76 153 0
0.361791 -0.273952 0.139098 153 0 76
0.089295 0.377345 0.006479 153 0 76
-0.389799 -0.406175 0.071040 76 153 0
-0.183372 -0.569836 -0.091333 0 127 127
-0.488855 0.105708 0.060736 153 0 76
-0.277834 -0.088960 -0.083616 76 153 0
0.633548 -0.442883 0.063317 76 153 0
-0.842891 0.289814 -0.043336 76 153 0
0.033167 0.578762 -0.034539 76 153 0
-0.652727 0.590201 -0.080867 76 153 0
-0.086587 0.429034 -0.147432 76 153 0
-0.458341 0.217241 -0.146028 76 153 0
0.706260 -0.469351 0.166153 76 153 0
-0.440524 -0.081496 -0.085135 76 153 0
-0.193255 0.047070 -0.111407 76 153 0
0.376075 0.478426 -0.141373 76 153 0
-0.671025 0.413979 -0.141158 76 153 0
0.756540 -0.138172 0.111007 76 153 0
-0.013839 0.184271 -0.139217 76 153 0
0.818567 0.516363 -0.043160 76 153 0
-0.656833 0.450745 -0.009122 153 0 76
-0.582443 -0.454258 0.175458 76 153 0
0.177750 -0.614046 0.063310 0 127 127
-0.842960 0.461983 -0.058567 76 153 0
0.588463 -0.287698 0.141524 153 0 76
-0.209022 -0.449807 0.174655 76 153 0
-0.778223 -0.106813 -0.006813 76 153 0
0.488065 -0.413706 0.167113 76 153 0
-0.738178 0.583941 -0.110491 76 153 0
-0.146537 0.587917 -0.089030 76 153 0
0.046963 -0.134103 -0.085312 127 0 127
-0.264774 -0.612392 0.028053 0 127 127
0.014641 -0.614046 -0.096094 0 127 127
0.510632 0.084080 -0.112099 76 153 0
-0.540618 0.291977 0.022838 153 0 76
0.501550 0.315002 -0.159733 76 153 0
0.581764 -0.145930 0.111931 153 0 76
0.116520 -0.588170 -0.240649 0 127 127
0.048900 -0.345033 0.058633 76 153 0
0.340342 0.111322 0.060692 153 0 76
-0.675390 0.578833 -0.122064 76 153 0
-0.838482 0.029695 -0.014868 76 153 0
0.789454 0.572718 -0.124315 76 153 0
0.327547 -0.058756 0.094194 153 0 76
-0.534124 -0.477162 0.129046 76 153 0
-0.066765 -0.115336 -0.078305 76 153 0
-0.138959 0.553805 -0.029421 76 153 0
-0.270788 0.355513 0.010947 153 0 76
0.152034 -0.584917 -0.220647 0 127 127
0.337085 0.584545 -0.107907 76 153 0
0.364923 0.405005 0.000964 153 0 76
0.207637 0.346708 -0.157323 76 153 0
0.145322 0.092912 -0.120616 76 153 0
0.341395 -0.320126 0.053532 76 153 0
0.138173 -0.610716 0.215277 0 127 127
-0.298168 0.549197 -0.028483 76 153 0
0.759011 0.152837 -0.058540 76 153 0
-0.842819 -0.180536 0.097036 76 153 0
0.388898 0.380167 0.005905 153 0 76
-0.308412 0.013205 -0.104432 76 153 0
-0.561098 -0.331391 -0.000877 76 153 0
0.801925 0.314597 -0.079660 76 153 0
0.519880 -0.093240 0.101313 153 0 76
0.278449 -0.171225 0.118109 153 0 76
0.564573 0.263263 -0.133875 76 153 0
0.162465 0.053981 -0.112813 76 153 0
0.605839 0.060909 -0.081436 76 153 0
-0.055819 -0.246391 0.133393 153 0 76
0.323791 -0.349130 0.154283 153 0 76
0.492754 0.591103 -0.039275 76 153 0
-0.090785 -0.614046 0.230271 0 127 127
0.741786 -0.446015 0.173939 76 153 0
0.559414 0.232557 0.036046 153 0 76
-0.591276 -0.403045 0.040385 76 153 0
-0.303227 0.206654 -0.143873 76 153 0
0.691187 0.406721 -0.128708 76 153 0
0.622137 0.379516 -0.141917 76 153 0
0.748031 0.361272 -0.103913 76 153 0
0.818740 -0.324047 0.107038 76 153 0
0.074894 -0.421573 0.074173 76 153 0
-0.289738 -0.109039 -0.079545 76 153 0
0.372593 0.568267 -0.129283 76 153 0
-0.372389 0.357308 -0.156040 76 153 0
-0.429952 0.445116 -0.007262 153 0 76
-0.076525 -0.160625 -0.069138 76 153 0
-0.099963 -0.231412 -0.054290 76 153 0
0.748969 0.189896 -0.068834 76 153 0
0.545560 -0.365268 0.018624 76 153 0
0.047318 -0.165325 -0.068146 76 153 0
-0.135419 -0.569836 0.213552 0 127 127
-0.071301 -0.614046 -0.222436 0 127 127
-0.070812 -0.367474 0.158127 153 0 76
-0.176891 -0.569836 -0.024407 0 127 127
0.530545 -0.235779 0.130731 153 0 76
0.067945 -0.569836 -0.239885 0 127 127
-0.537397 -0.145209 0.112806 153 0 76
0.568040 0.324890 0.017265 153 0 76
0.185457 -0.124847 0.108764 153 0 76
0.452079 0.037732 -0.109507 76 153 0
0.814693 0.440720 -0.097028 76 153 0
0.691951 -0.111985 0.105125 153 0 76
-0.060372 -0.474660 -0.162002 127 0 127
0.816571 0.555982 -0.072911 76 153 0
0.214856 -0.569836 0.028448 0 127 127
0.448070 0.126974 0.057524 153 0 76
0.330712 0.120282 -0.126302 76 153 0
0.304992 0.217232 -0.146026 76 153 0
0.110469 -0.569836 -0.118224 0 127 127
0.660246 0.494390 -0.017221 153 0 76
-0.677405 0.208044 -0.098354 76 153 0
-0.759336 -0.326091 0.032631 76 153 0
0.042302 0.420066 -0.002099 153 0 76
0.026843 -0.569836 -0.232557 0 127 127
0.646441 0.131622 -0.084823 76 153 0
0.138930 -0.569836 0.158702 0 127 127
-0.740039 -0.151452 -0.008180 76 153 0
-0.035697 -0.159120 -0.114744 127 0 127
-0.563651 -0.167022 0.117244 153 0 76
-0.034523 0.188175 -0.147148 76 153 0
0.018641 -0.614046 -0.238202 0 127 127
0.665526 -0.310627 0.010294 76 153 0
-0.055570 0.497601 -0.017875 153 0 76
0.086572 -0.614046 -0.124497 0 127 127
0.098721 0.262053 0.029990 153 0 76
-0.073210 -0.184851 -0.118689 127 0 127
0.057389 -0.204389 -0.092962 127 0 127
0.306057 -0.237270 -0.052422 76 153 0
-0.178094 0.164184 -0.133740 76 153 0
0.307908 0.543330 -0.027289 76 153 0
0.155577 -0.614046 -0.146733 0 127 127
-0.073018 -0.499096 -0.137007 127 0 127
-0.092152 -0.167270 -0.102431 127 0 127
-0.136657 0.448751 -0.145034 76 153 0
-0.396424 0.003294 0.082657 153 0 76
-0.430165 -0.248311 0.133784 153 0 76
-0.842912 0.339259 -0.022900 76 153 0
0.367931 -0.221533 0.128416 153 0 76
0.142848 -0.569836 -0.208343 0 127 127
0.159485 -0.437388 0.077437 76 153 0
-0.220211 -0.304677 0.050399 76 153 0
-0.107952 -0.539619 -0.143063 127 0 127
0.209319 -0.306533 0.145725 153 0 76
-0.095792 0.372086 -0.154276 76 153 0
0.313853 0.366502 -0.154917 76 153 0
0.092526 -0.569836 0.211984 0 127 127
-0.440139 0.272427 -0.157133 76 153 0
0.747954 0.175750 -0.066167 76 153 0
0.281655 -0.104446 -0.080465 76 153 0
0.023540 -0.240121 -0.098302 127 0 127
0.648089 -0.429327 0.055514 76 153 0
0.073620 -0.513770 -0.139200 127 0 127
0.727405 0.329176 -0.103021 76 153 0
-0.362178 -0.271873 -0.031741 76 153 0
-0.763813 -0.094234 -0.013301 76 153 0
-0.074220 -0.614046 -0.076421 0 127 127
-0.067757 -0.569836 -0.119299 0 127 127
0.254100 -0.040399 -0.093610 76 153 0
0.058093 -0.146953 -0.113801 127 0 127
-0.037466 -0.569836 -0.176078 0 127 127
0.304225 0.101872 -0.122449 76 153 0
-0.068710 -0.208600 0.125805 153 0 76
-0.282601 0.571992 -0.033132 76 153 0
-0.613047 0.525665 -0.023583 76 153 0
-0.095043 0.450812 -0.008455 153 0 76
0.712001 -0.005390 -0.039191 76 153 0
0.136018 -0.614046 0.062125 0 127 127
0.463485 0.249454 0.032611 153 0 76
-0.494199 -0.470505 0.160992 76 153 0
0.393496 0.062983 -0.114610 76 153 0
-0.531805 -0.355805 0.013362 76 153 0
0.049824 -0.403744 -0.122756 127 0 127
0.420948 -0.268310 -0.001967 76 153 0
0.213433 0.421564 -0.148341 76 153 0
-0.225517 0.505906 -0.019565 153 0 76
-0.840991 -0.364307 0.068440 76 153 0
0.464597 0.072509 0.068277 153 0 76
-0.096244 -0.267788 -0.037218 76 153 0
-0.091659 -0.614046 0.114660 0 127 127
0.001468 -0.450680 0.080210 76 153 0
0.590641 0.389592 0.004023 153 0 76
-0.451500 -0.110889 0.105924 153 0 76
-0.302545 -0.010109 -0.099658 76 153 0
-0.115687 -0.569836 0.197049 0 127 127
-0.747552 -0.252906 0.014538 76 153 0
-0.178287 0.543096 -0.133558 76 153 0
-0.756989 0.165340 -0.068047 76 153 0
-0.071503 -0.614046 -0.239359 0 127 127
0.054399 0.555218 -0.132034 76 153 0
0.035518 0.137066 0.055474 153 0 76
0.551348 0.419218 -0.148627 76 153 0
-0.661281 -0.143563 -0.031203 76 153 0
0.705863 -0.381269 0.160607 153 0 76
-0.816016 0.203517 -0.059683 76 153 0
-0.266978 0.286873 0.024899 153 0 76
-0.125610 -0.569836 0.059689 0 127 127
0.182860 0.491497 -0.139707 76 153 0
-0.805380 -0.169532 0.116857 76 153 0
0.656926 0.306852 -0.117595 76 153 0
-0.372294 0.477581 -0.141484 76 153 0
-0.023772 -0.138998 -0.108604 127 0 127
0.023703 0.206863 -0.150252 76 153 0
-0.155737 -0.267061 0.137643 153 0 76
-0.422013 0.569011 -0.032522 76 153 0
-0.097274 -0.614046 -0.162400 0 127 127
-0.310744 0.048843 -0.111768 76 153 0
-0.842959 0.214511 0.003906 76 153 0
-0.423158 0.197191 0.042111 153 0 76
-0.767610 0.151902 -0.062366 76 153 0
-0.842955 -0.253569 0.079673 76 153 0
-0.029230 -0.084143 0.100423 153 0 76
-0.774718 -0.474100 0.143688 76 153 0
0.040315 -0.388818 0.162127 153 0 76
-0.538199 0.114472 0.058973 153 0 76
0.128176 -0.614046 -0.145802 0 127 127
-0.065077 -0.569836 -0.138407 0 127 127
-0.764884 0.595728 -0.048303 76 153 0
-0.820013 0.393617 0.003143 76 153 0
0.343450 0.037523 -0.109465 76 153 0
-0.420454 0.591481 -0.074575 76 153 0
0.140556 0.301314 0.022008 153 0 76
-0.122430 -0.614046 0.043669 0 127 127
-0.115940 -0.517636 -0.139778 127 0 127
0.340210 0.474542 -0.141881 76 153 0
-0.251068 -0.614046 -0.047697 0 127 127
0.540467 0.388906 0.004158 153 0 76
-0.058473 0.004464 -0.102623 76 153 0
-0.797385 0.588913 -0.081067 76 153 0
0.257693 0.042601 0.073698 153 0 76
0.037788 -0.043796 -0.092919 76 153 0
0.198424 -0.183399 0.120678 153 0 76
-0.001907 -0.140378 -0.078444 127 0 127
0.662613 0.508615 -0.137629 76 153 0
0.666412 0.040371 0.074093 153 0 76
-0.009329 -0.614046 -0.218210 0 127 127
0.112645 -0.569836 0.102557 0 127 127
-0.826014 0.423879 -0.101762 76 153 0
-0.460015 0.558008 -0.131677 76 153 0
-0.383368 0.591894 -0.072547 76 153 0
-0.768148 -0.266595 0.137428 76 153 0
0.667231 -0.437912 0.060457 76 153 0
-0.545039 -0.448156 0.174354 76 153 0
0.811411 0.159772 0.048960 76 153 0
-0.677355 -0.364150 0.020900 76 153 0
-0.121053 -0.614046 0.223230 0 127 127
0.428446 0.198158 0.043022 153 0 76
-0.063560 -0.569836 -0.098283 0 127 127
-0.384530 -0.367015 0.158034 153 0 76
-0.114695 0.590476 -0.078113 76 153 0
-0.830698 -0.271140 0.041082 76 153 0
-0.013891 -0.293886 -0.134985 127 0 127
0.750994 -0.146872 0.000189 76 153 0
-0.249385 -0.148191 0.113413 153 0 76
-0.423890 -0.050316 -0.091593 76 153 0
0.117134 0.171354 -0.144329 76 153 0
0.009936 -0.450427 -0.129733 127 0 127
0.309163 -0.482682 0.099274 76 153 0
0.647810 -0.055987 -0.046317 76 153 0
-0.527344 -0.414536 0.047159 76 153 0
0.818851 0.284001 -0.059247 76 153 0
0.459090 -0.057025 0.093842 153 0 76
-0.832778 0.561125 -0.033882 76 153 0
-0.374769 0.508096 -0.137692 76 153 0
-0.128534 -0.614046 -0.204519 0 127 127
-0.594863 0.463354 -0.011007 153 0 76
0.819097 0.291300 -0.004191 76 153 0
-0.108683 -0.357631 0.156061 153 0 76
0.205399 -0.569836 -0.025819 0 127 127
0.331942 0.503599 -0.138237 76 153 0
-0.060531 -0.289615 0.142284 153 0 76
0.342311 -0.050440 0.092520 153 0 76
0.814317 0.158612 -0.040034 76 153 0
-0.382940 -0.473659 0.086476 76 153 0
-0.031154 0.590645 -0.077355 76 153 0
-0.045387 -0.614046 -0.033833 0 127 127
0.451245 -0.157827 0.114353 153 0 76
0.055112 0.530709 -0.135065 76 153 0
-0.575122 0.002887 0.082743 153 0 76
-0.140190 0.013459 -0.104486 76 153 0
-0.257811 0.284882 -0.159516 76 153 0
-0.112932 -0.601562 0.232781 0 127 127
0.078643 -0.164774 0.116787 153 0 76
0.298051 0.123697 0.058187 153 0 76
0.476176 0.240713 0.034388 153 0 76
0.234221 -0.363641 0.157333 153 0 76
-0.673845 -0.048837 0.093225 153 0 76
0.082356 -0.134825 -0.083832 127 0 127
-0.707715 0.590869 -0.077581 76 153 0
-0.200222 -0.569836 -0.173597 0 127 127
-0.188089 -0.578580 0.180912 0 127 127
-0.146741 -0.246823 0.133481 153 0 76
0.489260 -0.063391 0.095139 153 0 76
0.056425 0.549143 -0.028473 76 153 0
0.223205 -0.585464 0.128396 0 127 127
0.046446 -0.194965 -0.091553 127 0 127
0.077738 -0.280850 -0.133037 127 0 127
-0.542725 0.091696 -0.111345 76 153 0
0.736287 -0.481645 0.094793 76 153 0
-0.045910 -0.614046 0.007171 0 127 127
-0.006279 -0.349788 0.059641 76 153 0
-0.569315 0.581669 -0.118091 76 153 0
-0.629613 0.551906 -0.029034 76 153 0
-0.055083 -0.614046 0.138743 0 127 127
-0.258594 -0.571652 -0.069859 0 127 127
-0.050678 0.177218 -0.135518 76 153 0
0.140393 0.201336 -0.140425 76 153 0
0.630386 -0.166701 -0.028484 76 153 0
-0.501937 -0.393825 0.163486 153 0 76
-0.489263 0.068087 -0.115415 76 153 0
-0.208602 0.264952 -0.155615 76 153 0
-0.172710 0.451929 -0.008682 153 0 76
-0.025762 0.242467 -0.151143 76 153 0
0.086556 -0.599518 -0.255961 0 127 127
0.034621 -0.139703 -0.109217 127 0 127
0.114316 0.244665 -0.149240 76 153 0
0.004804 -0.027410 0.088940 153 0 76
0.174643 0.129009 -0.128078 76 153 0
-0.266789 -0.272233 -0.030085 76 153 0
-0.037084 -0.167953 -0.101399 127 0 127
0.343085 -0.371278 0.064054 76 153 0
0.462474 -0.277741 -0.026128 76 153 0
-0.071681 -0.569836 0.068767 0 127 127
0.171851 -0.614046 0.144688 0 127 127
0.651246 -0.477701 0.126397 76 153 0
-0.460816 0.370362 0.007897 153 0 76
-0.531181 0.218083 -0.140154 76 153 0
-0.034454 -0.364245 -0.116853 127 0 127
-0.237845 -0.318846 0.148167 153 0 76
-0.610444 -0.370192 0.021464 76 153 0
0.267723 0.211010 0.040414 153 0 76
0.814006 0.061213 -0.020561 76 153 0
0.089774 0.311083 0.020074 153 0 76
-0.226570 0.375088 -0.153932 76 153 0
0.504342 -0.103537 0.103407 153 0 76
-0.265499 -0.469461 0.165658 76 153 0
0.149294 -0.569836 0.184341 0 127 127
-0.572122 0.314985 0.018258 153 0 76
-0.532258 0.446062 -0.007462 153 0 76
0.183606 -0.415227 0.072882 76 153 0
-0.110753 -0.614046 -0.034322 0 127 127
-0.637093 -0.161073 0.116034 153 0 76
0.369045 -0.330759 0.150543 153 0 76
-0.146254 -0.079397 -0.085578 76 153 0
-0.090961 -0.162384 -0.075732 127 0 127
0.641348 0.318250 0.018616 153 0 76
0.412526 0.582534 -0.116515 76 153 0
-0.121897 -0.569836 0.134226 0 127 127
-0.757940 0.087374 -0.051920 76 153 0
0.183165 0.131334 0.056639 153 0 76
0.479864 0.590317 -0.080296 76 153 0
0.217342 -0.614046 0.028553 0 127 127
-0.828227 -0.039136 0.090464 76 153 0
-0.061816 -0.193828 -0.120031 127 0 127
0.425986 0.258558 0.030728 153 0 76
-0.021407 -0.569836 -0.172055 127 0 127
-0.277408 0.241145 -0.150883 76 153 0
0.231530 -0.024038 -0.096879 76 153 0
0.019166 0.021570 0.078863 153 0 76
-0.469863 0.300210 -0.160963 76 153 0
-0.252109 0.058747 0.070993 153 0 76
-0.652429 -0.393516 0.163423 153 0 76
0.136022 -0.193949 -0.062267 76 153 0
-0.085043 -0.238523 -0.098063 127 0 127
-0.016730 -0.614046 0.158329 0 127 127
0.075486 -0.304978 0.050459 76 153 0
0.158996 0.298659 0.022532 153 0 76
0.704078 0.582967 -0.114662 76 153 0
-0.369535 -0.007403 0.084871 153 0 76
0.003637 -0.569836 -0.050614 0 127 127
-0.568960 -0.478505 0.122444 76 153 0
-0.114464 -0.164887 -0.106032 127 0 127
-0.598016 0.387584 0.003433 153 0 76
-0.155270 -0.269851 0.029271 76 153 0
0.685664 -0.468037 0.168841 76 153 0
0.016800 -0.611657 -0.270850 0 127 127
-0.510817 -0.018013 0.087029 153 0 76
-0.114222 0.226489 0.037278 153 0 76
-0.645786 0.069450 -0.078740 76 153 0
-0.717362 0.097795 -0.065020 76 153 0
0.364979 0.543386 -0.027300 76 153 0
0.729638 0.590325 -0.080258 76 153 0
0.353367 0.207653 -0.144076 76 153 0
0.093872 -0.473718 -0.146480 127 0 127
-0.023837 -0.569836 0.093420 0 127 127
-0.609921 -0.189039 -0.035977 76 153 0
0.622389 0.285713 0.025135 153 0 76
0.468025 -0.267058 -0.037822 76 153 0
-0.013410 -0.271582 0.032479 76 153 0
-0.019366 -0.614046 -0.012819 0 127 127
-0.051318 -0.252077 -0.100089 127 0 127
-0.147049 -0.195831 -0.061885 76 153 0
-0.209717 0.193383 0.043538 153 0 76
0.229637 0.092515 0.064522 153 0 76
-0.133037 -0.140312 0.111834 153 0 76
0.433506 0.435426 -0.146655 76 153 0
-0.348993 -0.259841 -0.042064 76 153 0
-0.182360 -0.025534 -0.096584 76 153 0
-0.267178 -0.611763 -0.018899 0 127 127
0.018150 -0.361629 -0.145109 127 0 127
-0.639149 -0.291692 -0.007112 76 153 0
0.200631 -0.096555 0.103009 153 0 76
0.217023 -0.578642 0.140493 0 127 127
-0.449897 -0.447272 0.079521 76 153 0
0.802151 -0.448375 0.076866 76 153 0
-0.154184 0.584023 -0.107294 76 153 0
-0.300788 -0.441328 0.078274 76 153 0
0.773769 -0.215062 0.020273 76 153 0
-0.680411 -0.123482 -0.030094 76 153 0
-0.008192 -0.598990 -0.269571 0 127 127
-0.147875 -0.160254 0.115867 153 0 76
0.656526 0.165126 0.049767 153 0 76
0.083990 -0.614046 0.228620 0 127 127
0.222395 -0.476261 0.133432 76 153 0
-0.748785 0.355070 0.010096 153 0 76
-0.031536 0.432047 -0.147066 76 153 0
0.053582 0.359418 0.010127 153 0 76
-0.045460 0.166661 -0.143374 76 153 0
-0.243101 -0.583871 0.106379 0 127 127
0.016386 0.337246 -0.158505 76 153 0
0.135115 -0.569836 -0.029258 0 127 127
0.653954 -0.110849 -0.033552 76 153 0
0.075634 -0.569836 -0.048962 0 127 127
0.665017 -0.450769 0.067852 76 153 0
-0.278300 -0.253938 0.134928 153 0 76
-0.215587 0.025195 -0.106956 76 153 0
-0.205268 -0.474635 0.087006 76 153 0
0.371179 0.398955 -0.151091 76 153 0
-0.158737 -0.614046 -0.130619 0 127 127
-0.332365 0.171241 0.047436 153 0 76
0.586682 0.169688 0.048833 153 0 76
-0.785009 0.011472 -0.029017 76 153 0
0.818583 -0.270322 0.050411 76 153 0
-0.429881 0.146076 0.052624 153 0 76
0.616373 -0.031336 0.088715 153 0 76
0.339460 -0.481172 0.094369 76 153 0
0.093872 -0.211954 -0.122070 127 0 127
0.145973 -0.569836 -0.008322 0 127 127
-0.132243 -0.614046 -0.070335 0 127 127
-0.630805 0.383097 -0.145690 76 153 0
-0.733028 -0.326811 0.149738 153 0 76
-0.754446 -0.225599 0.010854 76 153 0
-0.634542 -0.265416 -0.013699 76 153 0
0.200246 -0.569836 0.125461 0 127 127
-0.444026 0.419756 -0.002036 153 0 76
-0.749560 -0.110551 -0.013883 76 153 0
0.266061 0.359935 -0.155714 76 153 0
-0.811818 0.407517 -0.102362 76 153 0
-0.127179 -0.452938 -0.151738 127 0 127
0.224365 0.552421 -0.132392 76 153 0
-0.771407 0.583347 -0.113018 76 153 0
0.780308 0.282102 0.025870 76 153 0
0.449355 0.447402 -0.007745 153 0 76
-0.468726 -0.082124 -0.085006 76 153 0
0.049749 -0.614046 -0.058126 0 127 127
0.496275 0.329421 0.016343 153 0 76
-0.178598 -0.361216 0.062006 76 153 0
0.718946 0.007178 0.081155 76 153 0
-0.047506 -0.614046 0.201119 0 127 127
-0.027782 -0.295184 -0.106531 127 0 127
-0.812003 0.222474 -0.064684 76 153 0
-0.285240 0.049891 0.072937 153 0 76
-0.076044 -0.060303 0.095532 153 0 76
-0.182843 -0.569836 -0.198305 0 127 127
0.719321 0.397518 -0.119145 76 153 0
0.029526 -0.416438 0.073129 76 153 0
-0.629908 0.205949 -0.110869 76 153 0
-0.500667 0.545747 -0.027781 76 153 0
-0.319485 -0.324053 0.054331 76 153 0
-0.783004 0.470435 -0.012627 76 153 0
0.452472 0.317058 -0.160719 76 153 0
0.058152 -0.569836 0.064390 0 127 127
-0.249598 -0.334256 0.056407 76 153 0
-0.698810 0.117355 -0.074117 76 153 0
-0.189471 0.532660 -0.134827 76 153 0
-0.556262 0.309741 -0.151972 76 153 0
0.472805 0.451445 -0.008584 153 0 76
-0.203639 -0.614046 -0.013384 0 127 127
-0.140552 0.310634 0.020165 153 0 76
-0.572504 -0.309777 -0.013192 76 153 0
0.352412 0.388736 -0.152333 76 153 0
-0.100045 -0.399668 -0.150794 127 0 127
-0.133440 -0.237445 0.131571 153 0 76
0.120392 -0.030589 -0.095590 76 153 0
-0.562172 -0.410579 0.166834 76 153 0
-0.070004 0.004138 0.082478 153 0 76
-0.517981 -0.110754 -0.076137 76 153 0
-0.054572 0.592762 -0.040386 76 153 0
-0.110894 -0.189590 -0.090750 127 0 127
-0.029280 0.308464 0.020596 153 0 76
-0.121631 0.441246 -0.145947 76 153 0
-0.163775 0.168057 -0.133654 76 153 0
0.059825 -0.268905 -0.004871 76 153 0
-0.278986 0.182654 -0.138888 76 153 0
-0.042068 -0.272620 0.034399 76 153 0
-0.049342 -0.389184 -0.149227 127 0 127
-0.151092 -0.569836 -0.185696 0 127 127
-0.651101 0.286311 -0.121416 76 153 0
0.508921 -0.226514 0.128872 153 0 76
-0.750722 -0.295303 0.143441 76 153 0
0.320821 -0.271151 -0.035069 76 153 0
0.775478 0.174090 0.047931 76 153 0
0.248845 -0.348716 0.154199 153 0 76
0.217034 -0.280430 0.140417 153 0 76
-0.656059 -0.482208 0.103758 76 153 0
-0.045501 -0.569836 0.007295 0 127 127
0.551460 0.197675 0.043120 153 0 76
-0.786886 -0.379058 0.050905 76 153 0
-0.773918 -0.247582 0.020549 76 153 0
-0.337642 0.584845 -0.105739 76 153 0
0.801282 0.043778 -0.024725 76 153 0
0.149450 0.117083 -0.125651 76 153 0
0.402564 -0.081427 0.098827 153 0 76
0.633505 -0.240168 -0.012735 76 153 0
-0.257183 -0.470894 0.084977 76 153 0
-0.654874 -0.119610 -0.037836 76 153 0
0.304189 0.182420 -0.138841 76 153 0
0.151111 -0.569836 0.110150 0 127 127
-0.396784 0.517123 -0.021846 76 153 0
0.611051 0.367913 0.008398 153 0 76
0.777299 -0.331563 0.045032 76 153 0
0.394493 0.332816 0.015652 153 0 76
0.687539 0.584930 -0.106161 76 153 0
-0.060532 -0.472114 0.153372 76 153 0
0.380571 0.220162 0.038564 153 0 76
0.202194 -0.614046 0.056174 0 127 127
-0.343893 -0.362304 0.062228 76 153 0
0.574258 0.504865 -0.138084 76 153 0
-0.503150 0.131873 0.055513 153 0 76
-0.089508 0.290237 -0.160220 76 153 0
0.157397 -0.614046 -0.104673 0 127 127
-0.681243 0.436838 -0.006538 153 0 76
0.417462 0.480779 -0.141065 76 153 0
0.375572 -0.291419 0.047789 76 153 0
-0.142291 0.244500 0.033618 153 0 76
-0.625522 0.373981 0.006143 153 0 76
-0.181907 0.504689 -0.138105 76 153 0
0.132844 -0.127150 -0.075961 76 153 0
0.187348 0.501165 -0.018600 153 0 76
-0.281685 -0.391241 0.068041 76 153 0
0.243843 -0.569836 -0.085533 0 127 127
0.010589 -0.134306 -0.084896 127 0 127
0.569512 -0.106368 0.103983 153 0 76
0.013689 -0.581824 -0.270691 0 127 127
0.182231 -0.569836 0.101922 0 127 127
0.373462 0.077948 -0.117572 76 153 0
0.150198 -0.614046 -0.169571 0 127 127
-0.106715 -0.541523 -0.171995 127 0 127
0.009831 0.522892 -0.023020 76 153 0
-0.115376 -0.569836 -0.174224 0 127 127
-0.327036 0.121798 0.057526 153 0 76
0.397999 -0.056189 -0.090398 76 153 0
0.314827 -0.060613 -0.089498 76 153 0
-0.059499 -0.614046 0.024267 0 127 127
0.268347 0.182502 0.046212 153 0 76
-0.278410 -0.071940 0.097900 153 0 76
0.791555 -0.346842 0.153165 76 153 0
0.720375 0.372148 -0.113674 76 153 0
-0.690180 0.172779 -0.087728 76 153 0
-0.129389 -0.343468 0.153131 153 0 76
-0.272991 -0.278931 0.140112 153 0 76
-0.341440 0.287510 -0.159862 76 153 0
-0.014445 0.529852 -0.135169 76 153 0
0.190184 -0.614046 -0.055200 0 127 127
0.291046 -0.470381 0.161544 76 153 0
-0.218956 0.012713 0.080665 153 0 76
0.208109 -0.569836 0.079247 0 127 127
0.614001 0.587989 -0.037903 76 153 0
0.193502 0.054722 0.071550 153 0 76
-0.770791 -0.440901 0.172959 76 153 0
-0.668360 -0.280882 0.140509 153 0 76
0.657871 0.212499 0.040113 153 0 76
0.691806 0.193955 0.043878 153 0 76
0.805059 0.580703 -0.057509 76 153 0
0.204828 0.535110 -0.025571 76 153 0
0.745095 -0.060472 -0.018995 76 153 0
-0.248522 -0.569836 -0.037517 0 127 127
0.185224 0.207403 -0.144026 76 153 0
0.727951 -0.175232 -0.000313 76 153 0
0.015292 -0.569836 0.112207 0 127 127
-0.047489 -0.170483 -0.116542 127 0 127
0.413355 0.030179 -0.107971 76 153 0
0.445992 -0.211884 -0.058702 76 153 0
-0.415752 0.583639 -0.111785 76 153 0
-0.032877 -0.340309 -0.113275 127 0 127
-0.562683 -0.259599 0.136079 153 0 76
0.489424 0.584953 -0.106049 76 153 0
0.282313 -0.270090 -0.035734 76 153 0
0.819108 0.277809 0.005377 76 153 0
0.024706 0.103583 -0.122813 76 153 0
0.544178 -0.341616 0.152754 153 0 76
-0.073860 -0.569836 -0.078431 0 127 127
-0.568580 0.246190 -0.135688 76 153 0
-0.184374 0.491522 -0.016642 153 0 76
-0.433806 0.514095 -0.021230 76 153 0
0.369493 -0.140185 -0.073309 76 153 0
0.075349 0.509718 -0.020340 153 0 76
-0.190325 0.221327 0.038331 153 0 76
-0.070681 -0.140054 0.111782 153 0 76
-0.063856 0.264726 -0.155570 76 153 0
0.083266 -0.569836 -0.254996 0 127 127
0.105900 -0.614046 0.121981 0 127 127
-0.131230 0.180442 -0.136174 76 153 0
0.473219 0.146838 0.053487 153 0 76
0.305228 -0.161681 -0.068915 76 153 0
0.541725 -0.388122 0.031791 76 153 0
-0.360617 0.571481 -0.128019 76 153 0
-0.204406 -0.614046 -0.158796 0 127 127
0.718871 -0.068285 0.096536 153 0 76
-0.137053 0.427316 -0.147641 76 153 0
-0.771394 -0.015256 0.086468 76 153 0
-0.382711 -0.382854 0.066391 76 153 0
0.127927 -0.569836 -0.148216 0 127 127
-0.057173 -0.512698 -0.139040 127 0 127
-0.743000 0.097886 0.062343 153 0 76
-0.228562 -0.012370 0.085881 153 0 76
0.483061 0.442026 -0.006610 153 0 76
0.367600 -0.288177 0.141992 153 0 76
0.082606 0.118725 -0.125985 76 153 0
-0.251234 0.505304 -0.019442 153 0 76
0.553683 0.499160 -0.018192 153 0 76
-0.108105 -0.143232 -0.111987 127 0 127
-0.025618 -0.140667 -0.079866 127 0 127
0.498190 -0.016714 0.085741 153 0 76
-0.149354 -0.415229 0.167753 76 153 0
-0.842012 0.466751 -0.097456 76 153 0
0.501662 0.288707 0.024525 153 0 76
-0.330710 -0.000142 -0.101686 76 153 0
0.701444 0.270590 0.028212 153 0 76
0.294321 0.316914 -0.160733 76 153 0
0.025683 -0.209278 -0.093692 127 0 127
-0.176881 -0.480658 0.111663 76 153 0
0.016263 0.489708 -0.139925 76 153 0
0.566086 0.016467 0.078881 153 0 76
-0.694650 -0.092703 -0.032452 76 153 0
0.114078 -0.614046 -0.241553 0 127 127
0.761656 -0.471498 0.080313 76 153 0
-0.544720 -0.156040 -0.060397 76 153 0
0.770982 0.191778 -0.063194 76 153 0
0.331090 0.021001 -0.106087 76 153 0
-0.000599 -0.293317 0.143037 153 0 76
-0.150525 -0.614046 -0.224330 0 127 127
0.020019 -0.569836 0.204901 0 127 127
-0.334756 0.283337 0.025449 153 0 76
-0.813175 -0.473513 0.124392 76 153 0
0.308198 -0.063917 0.095246 153 0 76
-0.671739 0.237359 0.034052 153 0 76
0.687632 0.242879 0.033948 153 0 76
-0.019812 -0.614046 0.208253 0 127 127
-0.055103 -0.164047 -0.083905 127 0 127
-0.358745 -0.129663 0.109730 153 0 76
-0.028627 0.127963 0.057327 153 0 76
-0.661392 -0.376857 0.025614 76 153 0
0.602216 0.284198 0.025443 153 0 76
0.365423 0.389723 0.003997 153 0 76
-0.343289 0.050741 0.072753 153 0 76
